NCOLS 320
NROWS 37
XLLCORNER -11856052.5119
YLLCORNER 4352434.07067
CELLSIZE 191.312255
NODATA_VALUE NaN
2282.15 2287.51 2293.32 2284.16 2266.86 2254.64 2261.09 2246.14 2230.89 2232.7 2188.82 2249.47 2258.12 2255.42 2227 2196.86 2237.35 2250.65 2262.49 2269.83 2279.75 2293.52 2296.51 2316.72 2299.69 2283.94 2237.83 2199.75 2223.2 2270.67 2278.83 2291.18 2300.12 2293.13 2290.78 2305.48 2314.3 2325.08 2327.26 2331.53 2330.34 2332.41 2344.44 2357.42 2364.61 2379.45 2393.25 2410.77 2439.49 2431.96 2441.47 2456.31 2462.6 2469.49 2474.07 2469.28 2465.72 2458.53 2447.1 2435.46 2428.02 2433.98 2439.57 2444.22 2443.17 2445.72 2450.43 2456 2461.99 2463.15 2434.44 2441.71 2445.29 2451.18 2460.4 2471.94 2477.78 2490.43 2498.2 2511.2 2526.15 2533.66 2539.29 2552.33 2567.51 2588.15 2618.9 2634.48 2650.91 2661.24 2670.98 2682.11 2694.32 2703.79 2713.61 2723.31 2732.18 2741.68 2754.9 2766.67 2778.44 2789.51 2806 2829.74 2841.08 2847.42 2855.29 2865.41 2870.82 2882.44 2890.03 2897.6 2908.06 2937.37 2926.78 2917.28 2885.62 2861.49 2841.57 2832.32 2831.78 2844.51 2804.15 2787.73 2766.24 2723.94 2696.65 2682.62 2657.79 2606.31 2577.16 2523.3 2495.55 2456.02 2431.28 2408.2 2424.03 2444.4 2460.2 2481.75 2510.98 2537.62 2547.73 2582.32 2575.25 2549.57 2529.1 2511.51 2483.88 2542.02 2543.5 2519.48 2534.14 2534.13 2531.95 2581.28 2618.47 2682.19 2696.74 2683.6 2646.14 2608.97 2556.18 2510.12 2488.03 2458.4 2461.78 2487.83 2458.36 2431.14 2416.67 2396.79 2406.09 2420.18 2435.34 2482.51 2464.22 2470.29 2526.01 2553.61 2532.22 2506.87 2489.2 2482 2482.25 2473.07 2461.83 2448.7 2437 2430.21 2477.95 2490.16 2474.11 2475.13 2457.51 2473.26 2457.53 2398.7 2425.61 2468.09 2468.88 2468.53 2471.44 2492.27 2519.28 2535.06 2512.1 2489.68 2467 2447.45 2435.25 2465.79 2443.58 2435.18 2462.06 2468.82 2471.44 2490.68 2515.12 2533.19 2539.86 2541 2560.42 2530.75 2515.96 2500.2 2481.33 2480.64 2517.66 2552.07 2568.1 2547.71 2534.71 2546.9 2554.37 2568.14 2519.95 2472.85 2402.27 2328.88 2272.99 2231.64 2219.46 2208.69 2197.49 2188.97 2181.3 2181.32 2179.56 2175.21 2174.49 2174.18 2176.01 2166.23 2149.08 2106.69 2090.89 2071.16 2070.03 2081.57 2140.37 2187.54 2226.26 2262.63 2272.18 2249.1 2226.99 2210.43 2201.25 2181.5 2187.61 2184.24 2167.61 2168.62 2192.34 2197.79 2191.32 2164.83 2140.36 2171.52 2145.6 2152.3 2178.22 2178.2 2181.2 2166.71 2154.74 2172.66 2174.27 2172.2 2179.71 2189.85 2172.31 2129.33 2120.8 2150.16 2168.46 2133.65 2137.82 2144.58 2153.21 2105.43 2084.67 2074.11 2078.69 2142.07 2135.17 2112.5 2126.44 2170.13 2171.87 2174.5 2156.01 2170.29 2177.72 2165.15 2155.99 2149.12 2146.39 2145.77
2294.39 2294.28 2296.47 2288.51 2269.12 2255.78 2221.75 2238.09 2245.6 2232.23 2201.21 2187.69 2240.21 2257.21 2212.05 2200.9 2256.67 2262.74 2271.39 2277.27 2284.24 2290.52 2282.09 2295.2 2304.56 2263.08 2209.27 2208.3 2263.41 2276.36 2290.04 2292.3 2298.75 2301.21 2301.98 2309.8 2309.09 2320.36 2328.3 2337.6 2339.89 2338.37 2339.42 2355.28 2372.05 2386.53 2399.65 2424.76 2432.01 2436.88 2449.3 2441.1 2456.23 2449.21 2443.79 2433.76 2431.43 2438.1 2453.26 2430.85 2424.31 2428.52 2431.98 2435.58 2439.43 2448.14 2459.67 2462.8 2466.84 2459.78 2427.88 2435.79 2438.71 2437.1 2439.64 2444.72 2452.97 2465.17 2477.32 2486.84 2504.11 2521.56 2536.86 2548.45 2560.73 2574.25 2592.02 2618.63 2638.04 2657.8 2675.83 2684.72 2696.99 2713.87 2717.41 2725.62 2734.18 2744.39 2758.05 2772.65 2784.18 2795.97 2817.06 2834.3 2841.02 2851.55 2859.8 2870.46 2877.97 2887.09 2893.49 2901.7 2916.45 2930.46 2912.13 2904 2893.56 2864.5 2840.66 2829.25 2821.46 2840.22 2835.25 2819.02 2791.77 2765.81 2752.99 2727.82 2659.01 2619.71 2591.82 2588.88 2535.17 2479.07 2439.29 2414.45 2399.45 2429.48 2432.47 2452.71 2478.62 2524.34 2536.23 2561.88 2559.09 2534.13 2519.15 2490.42 2495.06 2528.81 2539.55 2512.49 2517.39 2522.36 2523.7 2549.77 2597.8 2669.09 2690.25 2682.83 2673.25 2639.42 2575.07 2523.21 2493.24 2472.08 2449.19 2461.39 2456.82 2434.01 2397.75 2389.69 2396.03 2407.1 2445.51 2443.23 2432.17 2474.13 2520.09 2544.53 2550.17 2518.22 2495.34 2492.98 2476.39 2476.2 2461.08 2453.71 2442.68 2426.09 2475.2 2518.95 2462.55 2444.41 2438.44 2451.25 2420.97 2390.37 2403.77 2445.44 2500.22 2494.98 2486.22 2489.83 2507.68 2528.79 2510.98 2489.5 2470.27 2454.23 2436.75 2424.83 2440.22 2466.62 2488.32 2495.55 2495.13 2501.96 2544.1 2569.68 2565.21 2563.72 2572.98 2571.46 2563.39 2544.87 2489.73 2481.92 2510.94 2540.83 2519.97 2485.22 2478.91 2494.85 2504.14 2526.82 2479.65 2420.91 2378.41 2336.93 2265.96 2222.39 2206.81 2198.17 2190.34 2182.46 2176.37 2172.19 2172.9 2171.18 2168.9 2168.22 2166.93 2165.22 2160.31 2120.03 2095.29 2074.36 2065.98 2072.47 2102 2155.66 2226.13 2282.98 2263.21 2242.72 2224.35 2209.33 2193.35 2181.73 2168.49 2179.22 2151.7 2158.14 2166.89 2191.93 2174.16 2167.31 2134.5 2157.62 2150.49 2151.46 2177.84 2176.55 2165.69 2167.74 2153.92 2147.2 2160 2159.12 2176.94 2182.63 2175.6 2152.52 2114.45 2129.18 2162.99 2119.54 2102.23 2127.13 2124.21 2093.73 2067.3 2069.67 2122.5 2152.05 2144.47 2123.68 2151.97 2173.86 2184.43 2183.35 2166.86 2180.3 2176.96 2165.62 2156.52 2153.24 2148.22 2147.87
2300.95 2299.6 2293.82 2288.24 2259.95 2255.39 2264.16 2264.96 2261.5 2249.94 2255.14 2213.99 2177.48 2196.11 2171.65 2238.72 2268.84 2273.63 2277.76 2287.98 2294.6 2302.83 2279.92 2272.63 2268.84 2202.63 2194.09 2238.31 2256.52 2271.81 2263.92 2271.73 2293.01 2301.37 2311.93 2317.88 2321.46 2323.28 2326.92 2334.15 2339.5 2357.62 2349.05 2363.85 2374.49 2389.09 2406.44 2434.74 2418.67 2427.99 2425.61 2419.71 2425.56 2425.7 2430.29 2431.48 2419.59 2434 2435.53 2420.79 2425.78 2430.93 2438.8 2462.8 2454.69 2455.07 2465.55 2470.16 2469.46 2452.44 2422.34 2432.46 2431.68 2435.33 2441.74 2447.26 2454.15 2464.26 2471.86 2486.24 2503.49 2518.2 2530.89 2541.33 2558.24 2569.88 2586.98 2606.18 2623.05 2649.69 2679.04 2693.42 2700.64 2717.88 2725.89 2733.16 2739.94 2746.57 2760.56 2779.75 2789.66 2806.33 2822.44 2833.7 2844.04 2855.14 2862.65 2873.77 2881.3 2892.33 2900.83 2908.21 2932.05 2933.25 2913.51 2890.42 2874.44 2855.72 2840.65 2830.47 2819.32 2835.25 2834.71 2838.26 2833.57 2821.8 2793.48 2752.6 2698.24 2652.39 2620.97 2595.55 2544.8 2479.39 2438.41 2427.37 2400.29 2404.59 2434.75 2457.6 2479.27 2508.33 2517.42 2550.46 2547.53 2513.92 2484.55 2475.29 2537.46 2518.43 2522.2 2511.21 2502.26 2501.3 2523.15 2555.01 2617.01 2676.74 2687.6 2664.23 2676.06 2652.82 2608.47 2563.96 2515.05 2480.17 2460.15 2439.99 2416.2 2431.59 2408.07 2382.87 2388.54 2394.95 2426.79 2430.36 2459 2469.92 2504.55 2537.29 2543.33 2526.49 2519.82 2501 2493.73 2474.39 2481.35 2465.26 2441.38 2442.14 2466.19 2501.9 2446.33 2418.44 2444.28 2450.4 2397.99 2383.73 2390.13 2429.75 2478.11 2530.33 2512.47 2483.76 2491.51 2515.36 2510.57 2490.26 2466.96 2442.6 2420.35 2433.18 2460.35 2495.99 2530.34 2542.91 2526.86 2523.99 2546.02 2574.83 2574.92 2587.72 2605.17 2566.29 2577.34 2551.81 2483.07 2472.48 2509.49 2519.57 2460.51 2431.46 2430.9 2444.14 2468.36 2468.44 2449.43 2370.82 2321.92 2297.01 2249.73 2207.43 2193.01 2188.13 2181.93 2175.89 2171 2165.02 2166.65 2165.82 2164.5 2164.37 2163.12 2161.79 2159.53 2136.06 2099.45 2086.98 2063.98 2074.48 2133.54 2186.18 2242.34 2270 2239.37 2218.94 2220.84 2209.66 2195.13 2176 2138.53 2142.83 2142.08 2149.44 2161.26 2167.46 2175.92 2167.82 2142.6 2127.02 2133.92 2156.5 2169.79 2159.75 2167.6 2158.53 2151.27 2140.44 2150.73 2162.62 2170.93 2166.56 2172.54 2152.74 2126.62 2111.2 2135.42 2094.67 2078.48 2093.91 2078.65 2065.66 2075.46 2079.18 2121.52 2151.99 2146.52 2131.04 2157.49 2170.47 2186.32 2185.45 2183.54 2186.91 2177.55 2164.97 2157.06 2152.43 2149 2146.73
2296.66 2287.71 2288.04 2280.55 2264.55 2282.92 2283.86 2278.85 2260.19 2264.68 2266.28 2241.29 2224.88 2209.58 2168.14 2254.77 2264.91 2276.69 2287.29 2292.44 2303.66 2314.63 2298.37 2240.89 2205.95 2190.1 2223.37 2241.73 2244.84 2235.56 2260.95 2242.42 2292.02 2305.29 2315.47 2326.68 2333.07 2334.25 2334.95 2341.99 2349.57 2365.45 2368.78 2365.98 2376.91 2394.68 2417.59 2426.72 2405.03 2408.69 2410.48 2411.69 2428.34 2438.67 2450.85 2445.48 2411.75 2414.09 2412.06 2420.64 2432.68 2443.65 2445.57 2454.66 2464.79 2468.44 2473.13 2476.3 2461.07 2426.1 2425 2423.14 2427.28 2435.97 2443.73 2451.52 2459.44 2478.39 2486.03 2494.88 2507.64 2508.89 2527.44 2545.49 2563.51 2578.81 2590.42 2603.44 2619.1 2643.3 2668.47 2684.18 2706.81 2721.17 2733.96 2739.12 2750.48 2756.5 2765.75 2782.2 2796.27 2811.01 2830.54 2835.62 2850.49 2864.8 2866.6 2878.09 2886.77 2896.51 2907.71 2921.01 2957.02 2950.55 2931.51 2909.83 2887.5 2862.06 2843.09 2830.37 2818.64 2823.62 2827.5 2827.37 2834.95 2819.79 2768.56 2737.23 2674.65 2646.74 2610.96 2582.33 2526.2 2473.49 2465.84 2446.47 2401.01 2405.4 2428.7 2450.43 2472.75 2483.93 2507.81 2533.93 2532.38 2490.24 2454.45 2485.6 2532.69 2519.71 2499.92 2506.15 2488.41 2508.45 2520.75 2557.53 2614.68 2668.33 2667.97 2644.56 2670.39 2669.83 2632.25 2595.05 2548.55 2505.11 2466.15 2442.38 2439.76 2421.75 2395.22 2387.79 2377.28 2378.42 2385.35 2426.31 2425.85 2439.89 2490.58 2527.09 2506.18 2491.72 2493.47 2504.95 2493.84 2477.14 2465.08 2448.2 2437.86 2421.51 2420.88 2432.65 2415.52 2397.03 2429.3 2401.29 2378.44 2373.67 2370.24 2423.46 2462.71 2501.29 2522.29 2473.5 2472.09 2482.94 2485.52 2500.17 2481.68 2445.92 2411.97 2448.31 2481.6 2533.44 2584.04 2612.66 2596.36 2559.67 2555.15 2576.32 2595.32 2560.18 2542.94 2521.09 2524.37 2500.98 2447.36 2445.03 2474.04 2473.7 2428.47 2381.69 2381.55 2408.49 2417.87 2423.51 2395.81 2329.15 2277.57 2245.08 2225.05 2190.68 2181.32 2177.78 2173.94 2169.92 2166.46 2162.39 2157.73 2160.34 2158.6 2160.63 2160.12 2158.56 2156.81 2145.62 2107.32 2110.05 2090.2 2105.18 2170.37 2226.85 2281.08 2265.12 2244.65 2226.13 2202.16 2203.44 2192.53 2181.36 2166.31 2146.17 2117.52 2135.55 2148.24 2154.52 2175.83 2181.11 2168.26 2153.71 2122.55 2146.38 2152.38 2168.91 2178.41 2167.45 2152.1 2140.13 2154.41 2167.21 2174.11 2161.36 2154.97 2162.02 2138.93 2094.81 2106.49 2096.4 2066.14 2066.31 2067.67 2074.84 2082.23 2090 2123.16 2145.71 2158.03 2150.74 2167.29 2186.87 2189.95 2194.71 2199.51 2187.52 2177.05 2163.32 2154.4 2147.09 2142.97 2142.63
2290.84 2291.45 2279.77 2271.57 2284.49 2291.63 2288.44 2275.78 2268.34 2273.09 2272.79 2266.05 2265.9 2237.56 2166.65 2239.58 2269.36 2280.22 2293.76 2286.69 2306.46 2303.6 2264.49 2202.82 2184.71 2202.31 2267.9 2294.23 2293.84 2289.94 2288.02 2274.71 2288.28 2311.54 2318.41 2324.3 2325.59 2330.65 2335.99 2343.46 2357.55 2375.42 2380.75 2377.72 2393.07 2407.18 2427.82 2418.65 2396.12 2405.57 2402.07 2430.83 2446.9 2450.96 2445.09 2417.61 2406.02 2427.51 2443.85 2454.51 2459.43 2464.5 2469.96 2467.23 2469.1 2477.09 2478.4 2461.63 2431.89 2410.49 2414.9 2427.43 2433.55 2437.77 2443.96 2452.62 2468.72 2470.11 2480.86 2496.56 2507.82 2522.63 2535.56 2555.07 2563.5 2574.02 2582.71 2609.56 2625.54 2644.03 2657.77 2672.18 2691.09 2711.18 2728.47 2747.63 2757.49 2768.37 2776.09 2783.15 2796.82 2813.37 2831.09 2841.68 2853.66 2869.87 2877.04 2884.23 2891.36 2903.64 2915.77 2937.86 2959.6 2944.97 2933.01 2917.93 2895 2856.82 2835.36 2823.89 2814.94 2813.78 2818.29 2821.56 2828.08 2786.46 2754.04 2705.12 2667.61 2637.23 2607.22 2577.65 2533.04 2507.53 2491.59 2451.26 2402.33 2391.21 2419.47 2438.69 2455.05 2475.31 2480.42 2506.01 2498.24 2461.14 2455.4 2483.12 2521.91 2516.43 2499.87 2496.85 2482.54 2492.28 2506.03 2536.26 2601.29 2659.44 2647.53 2627.13 2611.43 2603.13 2633.06 2567.44 2517.26 2491.94 2473.46 2455.03 2442.05 2432.41 2422.15 2413.82 2386.56 2369.02 2378.67 2393.28 2414.98 2442.99 2475.04 2518.2 2483.72 2478.01 2476.44 2504.91 2483.55 2470.55 2464.1 2450.17 2440.33 2428.68 2419.71 2410.44 2408.16 2421.6 2438.07 2398.69 2382.24 2383.48 2365.9 2376.32 2430.65 2472.74 2486.8 2456.98 2465.69 2456.89 2480.62 2496.27 2483.12 2444.18 2408.84 2442.79 2478.16 2512.86 2532.31 2550.47 2579.35 2605.07 2596.92 2587.88 2594.88 2551.62 2504.1 2469.82 2451.34 2436.11 2402.66 2392.62 2407 2431.93 2384.43 2337.6 2337.24 2351.26 2360.12 2379.55 2326.27 2275.63 2238.94 2211.56 2191.87 2176.8 2171.2 2169.46 2167.28 2164.94 2162.39 2159.34 2155.42 2153.9 2153.48 2156.64 2156.37 2155.67 2154.78 2146.54 2105.06 2154.61 2091.78 2105.5 2207.06 2261.54 2261.8 2244.36 2235.63 2219.87 2193.89 2195.9 2183.6 2163.38 2164.76 2163.72 2161.38 2116.48 2140.3 2139.98 2175.06 2177.81 2159.28 2148.82 2134.18 2129.15 2156.03 2181.39 2177.5 2168.63 2166.94 2139.41 2158.55 2180.73 2170.47 2164.08 2136.17 2138.79 2113.08 2090.42 2090.08 2078.45 2061.64 2099.11 2122.35 2139.19 2100.94 2122.36 2098.43 2132.07 2166.77 2156.6 2177.71 2194.55 2193.6 2189.34 2196.79 2185.26 2170.55 2157.54 2146.8 2140.45 2135.93 2138.3
2306.93 2310.64 2294.83 2284.58 2300 2296.9 2286.58 2279.27 2282.55 2282.68 2283.1 2282.41 2276.34 2216.74 2172.35 2258.21 2278.9 2285.42 2295.93 2285.4 2271.97 2231.77 2183.05 2181.65 2202.19 2265.26 2282.59 2285.44 2299.27 2302.69 2294.43 2295.92 2268.63 2286.74 2290.18 2297.11 2319.41 2323.3 2334.72 2341.42 2347.96 2361.73 2366.43 2390.83 2402.98 2422.98 2428.51 2415.35 2392.31 2389.08 2419.67 2438.38 2438.37 2443.18 2408.54 2408.83 2427.15 2437.6 2445.85 2460.2 2463.63 2474.27 2480.82 2482.63 2474.26 2479.91 2471.33 2436.13 2409.92 2408.86 2422.3 2429.28 2436.01 2445.89 2455.22 2469.69 2481.91 2489.07 2492.34 2503.24 2516.68 2531.3 2547.37 2562.96 2573.31 2583.07 2598.2 2603.9 2620.01 2635.8 2650.24 2661.95 2683.31 2701.95 2716.99 2732.91 2752.22 2773.18 2782.75 2795.43 2804.32 2817.13 2831.7 2843.37 2854.72 2870.85 2884.71 2888.03 2898.06 2909.66 2923.19 2951.19 2955.82 2947.67 2918.31 2893.68 2872.34 2848.97 2831.65 2817.82 2807.85 2808.89 2816.9 2814.89 2810.99 2766.38 2721.57 2679.07 2648.55 2625.8 2604.02 2572.05 2551.06 2530.93 2502.04 2472.45 2411.69 2386.01 2407.4 2416.26 2427.72 2427.1 2451.38 2471.24 2444.01 2421.81 2456.46 2492.71 2529.49 2524.79 2506.57 2487.99 2472.69 2479.18 2496.51 2536.99 2591.44 2651.12 2630.78 2605.55 2551.38 2562.14 2575.56 2584.17 2530.7 2498.82 2475.58 2453.62 2437.1 2427.29 2420.32 2393.05 2388.15 2366.34 2373 2390.64 2411.97 2436.32 2457.39 2501.86 2495.61 2456.16 2484.86 2502.58 2480.4 2480 2464.39 2453.2 2437.56 2427.06 2420.36 2422.68 2417.87 2427.39 2400.01 2389.28 2410.05 2396.09 2376.86 2356.84 2400.23 2449.32 2458.56 2447.77 2442.6 2442.23 2467.29 2469.78 2454.1 2445.1 2403.73 2433.01 2462.47 2469.24 2485.45 2506.07 2531.21 2564.57 2599.52 2612.38 2607.16 2549.62 2499.78 2462.06 2434.23 2409.37 2370.96 2344.13 2354.67 2378.82 2355.7 2303.63 2293.35 2304.52 2325.05 2304.89 2258.64 2225.87 2205.61 2190.32 2179.43 2169.68 2163.78 2161.23 2158.96 2157.75 2156.99 2154.89 2152.73 2148.15 2149.4 2152.2 2152.72 2152.84 2149.84 2119.89 2093.78 2116.71 2074.86 2131.28 2222.49 2287.44 2270.07 2239.49 2231.12 2216.4 2191.2 2185.54 2185.05 2174.55 2158.93 2143.53 2147.8 2135.82 2122.37 2139.96 2176.09 2175.02 2168.2 2145.25 2126.77 2116.7 2146.43 2154.37 2157.77 2177.69 2161.1 2135.38 2147.25 2158.21 2171.93 2151.11 2132.62 2125.84 2131.26 2096.29 2078.7 2068.25 2062.26 2087.65 2144.11 2141.91 2124.92 2139.62 2103.06 2142.55 2135.45 2163.31 2174.24 2189.87 2195.93 2179.27 2188.27 2182.1 2167.67 2153.87 2152.96 2145.65 2136 2136.15
2312.54 2313.69 2302.62 2291.97 2305.5 2297.01 2292.19 2292.19 2289.95 2287.65 2278.91 2271.95 2263.48 2178.66 2193.17 2278.94 2280.78 2286.38 2275.68 2227.9 2201.2 2180.58 2178.4 2209.13 2278.79 2294.62 2294.46 2297.02 2297.2 2305.11 2307.26 2310.77 2312.84 2287.2 2320.63 2324.26 2330.37 2329.45 2338.69 2346.88 2362.2 2363.59 2370.14 2398.6 2419.2 2426.54 2423.4 2406 2387.54 2406.94 2431.5 2423.15 2436.91 2415 2397.57 2416.45 2425.91 2432.11 2439.06 2449.15 2461.81 2473.46 2484.7 2483.8 2464.74 2470 2452.37 2409.48 2402.21 2412.4 2418.08 2425.91 2438.53 2443.55 2461.38 2477.93 2493.11 2505.89 2504.5 2520.7 2532.01 2542.15 2550.89 2557.79 2573.34 2592.93 2605.22 2617.07 2628.61 2634.72 2646.08 2663.75 2674.27 2687.64 2701.85 2715.63 2734.61 2760.86 2782.67 2792.74 2797.84 2810.72 2821.17 2839.08 2852.23 2868.63 2884.52 2892.42 2904.34 2915.2 2931.04 2961.59 2946.34 2934.75 2932.3 2907.8 2870.97 2844.35 2824.82 2810.9 2800.22 2805.24 2810.3 2810.22 2815.41 2772.08 2734.26 2678.03 2649.93 2632.42 2616.46 2591.26 2566.46 2534.61 2504.92 2472.61 2419.61 2380.77 2387.1 2395.02 2391.43 2410.44 2429.86 2422.13 2406.57 2437.12 2466.28 2523.27 2534.18 2524.27 2503.91 2478.81 2461.78 2489.71 2514.79 2549.93 2605.53 2643.76 2598.53 2561.73 2515.9 2505.11 2513.74 2555.8 2512.75 2478.88 2467.94 2456.5 2442.54 2422.1 2394.16 2409.47 2389.91 2363.15 2361.88 2381.93 2391.13 2427.28 2470.68 2479.03 2461.11 2448.82 2494.62 2489.51 2472 2468.18 2463.59 2454.52 2448.75 2433.89 2427.9 2419.92 2411.9 2411.27 2418.54 2429.78 2408.21 2383.74 2366.5 2355.69 2365.59 2407.11 2442.46 2448.1 2429.24 2438.15 2438.36 2460.09 2443.59 2424.64 2408.52 2407.79 2425.34 2445.49 2463.18 2481.65 2504.75 2526.91 2563.21 2581.93 2593.83 2569.99 2519.23 2504.95 2477.38 2438.27 2381.65 2335.74 2312.89 2339.98 2322.04 2279.91 2259.27 2262.52 2285.54 2262.52 2220.9 2190.73 2181.18 2170.31 2166.27 2159.02 2156.05 2154.91 2153.24 2153.86 2152.51 2150.92 2148.37 2138 2148.92 2150.04 2143.52 2145.35 2142.35 2094.86 2078.68 2061.58 2095.18 2183.71 2257.9 2293.32 2270.59 2274.84 2238.18 2203.21 2191.69 2162.38 2181.59 2166.98 2157.32 2145.76 2125.42 2126.62 2097.73 2139.97 2157 2149.12 2157.18 2140.51 2127.6 2096.46 2137.15 2142.73 2178.58 2171.69 2149.59 2131.97 2137.46 2169.43 2164.03 2139.5 2132.67 2133.92 2097.33 2116.32 2070.68 2064.16 2060.5 2098.92 2150.5 2137.95 2139.21 2136.92 2125.11 2123.64 2137.68 2127.64 2142.31 2150.2 2177.65 2167.73 2185.15 2176.96 2160.12 2147.51 2145.37 2141.11 2136.53 2134.59
2315.18 2304.46 2292.07 2287.05 2295.61 2302.63 2304.3 2304.08 2298.12 2289.4 2279.55 2272.49 2207.42 2151.36 2227.87 2283.52 2286.77 2243.15 2183.93 2165.33 2169.95 2196.31 2219.38 2222.72 2246.32 2295.17 2303.34 2306.29 2306.22 2310.31 2317.6 2321.31 2321.76 2311.94 2303.83 2331.55 2339.09 2334.58 2338.24 2353.17 2374.81 2384.9 2390.85 2402.55 2420.73 2421.28 2419.77 2403.58 2383.6 2424.32 2427.94 2404.19 2395.5 2388.65 2420.76 2436.18 2442.76 2436.09 2451.76 2468.06 2474.18 2479.42 2485.56 2481.74 2450.11 2435.41 2402.29 2400.12 2418.92 2431.08 2439.02 2445.19 2449.14 2449.58 2459.55 2478.5 2489.57 2497.13 2502.24 2520.99 2535.42 2536.86 2532.7 2543.36 2566.89 2581.32 2604.45 2622.46 2634.22 2642.55 2651.82 2672.75 2679.02 2695.13 2701.28 2722.66 2740.93 2753.21 2771.83 2784.23 2792.33 2803.37 2818.69 2839.09 2853.62 2867.42 2880.26 2888.65 2906.21 2920.66 2941.39 2962.53 2951.89 2926.18 2914.77 2911.88 2869.59 2838.51 2822.17 2807.4 2792.5 2807.16 2804.32 2800.27 2810.49 2797.04 2750.78 2688.67 2662.18 2638.62 2632.86 2620.56 2602.98 2569.06 2526.43 2496.3 2452.3 2414.92 2380.39 2372.8 2375.62 2386.2 2386.23 2397.04 2430.48 2454.26 2486.22 2536.33 2523.29 2521.24 2504.36 2465.49 2481.43 2491.05 2519.55 2545.09 2618.93 2635.33 2611.86 2536.54 2491.02 2475.12 2481.6 2519.11 2544.59 2523.56 2502.83 2485.58 2460.89 2436.24 2414.01 2375.06 2378.46 2354.17 2359.41 2373.7 2385.89 2416.74 2492 2447.2 2430.74 2462.16 2472.79 2480.02 2448.26 2455.52 2467.72 2465.35 2440.91 2422.41 2425.39 2425.97 2430.5 2450.61 2452.27 2425.51 2396.08 2383.21 2386.27 2362.37 2350.82 2405.27 2400.12 2430.13 2436.89 2413.75 2437.11 2444.73 2447.49 2429.24 2395.1 2396.25 2402.88 2420.93 2439.66 2459.56 2479.33 2503.23 2529.65 2559.14 2576.78 2569.95 2543.59 2504.17 2475.22 2444.63 2383.25 2332.72 2287.82 2289.48 2274.49 2253.45 2237.6 2236.34 2255.22 2236.54 2196.81 2185.28 2179.82 2172.19 2167.13 2160.44 2153.16 2145.79 2141.52 2148.28 2148.7 2149.17 2141.69 2131.16 2148.37 2148.53 2148.28 2127.43 2110.19 2096.95 2048.35 2048.12 2091.05 2156.96 2192.13 2268.2 2310.51 2278.47 2235.25 2197.55 2182.4 2164.27 2169.88 2158.21 2162.01 2145.7 2127.52 2118.2 2097.56 2101.23 2118 2128.51 2122.42 2125.86 2123.16 2088.39 2123.13 2171.17 2178.09 2158.81 2141.87 2126.59 2135.79 2163.6 2143.06 2133.22 2124.65 2115.19 2105.78 2074.84 2062.29 2056.51 2062.02 2110.36 2133.99 2140.88 2143.7 2151.58 2160.17 2164.76 2158.41 2151.76 2178.9 2173.66 2157.08 2181.06 2184.06 2169.61 2159.25 2146.12 2136.19 2132.58 2131.23 2131.31
2319.18 2314.53 2286.77 2288.51 2296.37 2308.55 2324.19 2321.07 2305.45 2291.51 2284.96 2243 2176.01 2145.64 2232.55 2281.26 2233.17 2175.04 2165.24 2197.99 2209.54 2213.65 2250.68 2276.82 2222.92 2272.5 2295.13 2299.6 2307.75 2316.64 2320.39 2325.97 2332.3 2327.1 2311.67 2330.14 2340.73 2349.15 2347.58 2351.15 2358.87 2372.04 2390.74 2412.89 2418.1 2414.48 2415.65 2389.77 2402.33 2423.76 2419.53 2381.85 2398.91 2418.02 2427.37 2445.8 2458.3 2455.22 2464.47 2474.88 2478.56 2480.18 2475.85 2456.47 2424.23 2397.61 2395.24 2404.22 2408.35 2414.28 2429.58 2445.59 2454.84 2459.07 2461.46 2464.73 2476.73 2487.52 2497.26 2506.17 2514.75 2526.38 2542.56 2555.68 2568.28 2585 2610.51 2626.64 2641.81 2650.53 2663.56 2682.68 2696.39 2706.42 2712.74 2723.5 2743.43 2757.03 2767.9 2779.91 2788.82 2799.48 2814.57 2826.08 2842.39 2857.71 2869.37 2883.16 2901.76 2921.72 2958.88 2953.54 2940.7 2915.36 2897.29 2910.25 2861.57 2835.94 2818.04 2807.33 2793.6 2797.11 2806.44 2784.97 2801.81 2792.94 2776.79 2722.71 2687.2 2662.72 2653.94 2646.03 2631.82 2588.65 2551.75 2522.24 2478.33 2448.91 2400.73 2373.04 2365.92 2365.55 2382.57 2413.86 2447.89 2468.29 2517.09 2535.58 2521.6 2489.44 2499.04 2447.84 2477.01 2487.22 2512.19 2533.96 2583.6 2628.72 2591.98 2531.58 2487.75 2462.6 2462.14 2472.1 2499.63 2491.42 2483.67 2454.35 2429.12 2411.86 2383.77 2404.06 2359.17 2345.6 2370.47 2388.12 2379.03 2389.02 2433.2 2428.44 2435.07 2482.66 2457.53 2448.86 2428.54 2458.82 2471.19 2458.8 2432.95 2406.56 2419.11 2432.73 2456.32 2466.67 2452.64 2433.25 2416.9 2412.45 2399.12 2382.32 2344.42 2375.74 2371.85 2377.32 2395.87 2435.88 2407.16 2410.47 2408 2385.15 2392.13 2411.72 2432.04 2420.69 2425.01 2440.08 2468.26 2504.16 2534.22 2557.13 2569.42 2581.49 2517.75 2479.49 2465.52 2448.35 2387.94 2332.26 2298.59 2268.23 2251.89 2242.95 2228.62 2222.82 2227.59 2204.65 2195.78 2188.58 2180.7 2173.05 2166.51 2160.49 2152.59 2146.81 2138.65 2145.04 2147.55 2147.75 2138.32 2135.41 2146 2147.13 2146.38 2144.31 2130.01 2090.09 2054.94 2038.86 2040.84 2072.53 2138.18 2220.17 2294.23 2283.46 2254.49 2210.81 2178.77 2155.8 2148.82 2155.26 2142.55 2126.52 2127.29 2110.94 2105.29 2089.63 2111.78 2105.25 2121.69 2117.07 2112.9 2084.46 2145.36 2177.86 2163.6 2150.23 2129.65 2125.59 2140 2151.01 2126.53 2115.08 2111.04 2097.14 2075.54 2062.73 2057.24 2060.24 2079.21 2129.88 2144.4 2150.65 2150.24 2153.3 2169.74 2179.74 2185.21 2173.95 2192.73 2184.1 2178.24 2171.35 2183.56 2159.81 2152.54 2147.27 2136.24 2130.36 2126.16 2127.48
2322.85 2297.72 2278.75 2302.71 2307.55 2316.04 2321.28 2285.36 2272.18 2219.64 2202.99 2179 2147.63 2157.03 2213.33 2246.59 2172.14 2159.78 2190.09 2209.06 2215.79 2232.47 2246.18 2309.26 2289.12 2272.86 2260.74 2273.39 2306.81 2318.32 2327.53 2331.91 2337.34 2339.13 2327.75 2335.61 2341.26 2352.96 2352.59 2365.98 2375.31 2390.29 2394.15 2416.99 2413.49 2405.8 2399 2365 2399.95 2406.35 2391.54 2387.68 2417.18 2433.38 2450.05 2450.06 2467.16 2472.12 2474.57 2477.76 2476.68 2472.71 2443.79 2422.16 2413.32 2388.52 2399.05 2417.76 2427.97 2445.8 2437.56 2431.44 2445.01 2457.08 2468.59 2474.41 2480.48 2490.16 2501.53 2515 2528.1 2538.62 2549.64 2561.73 2575.85 2598.85 2615.38 2629.82 2642.97 2657.64 2674.48 2695.39 2708.5 2716.7 2721.87 2732.64 2738.81 2754.22 2766.08 2774.82 2786.02 2798.67 2808.61 2815.36 2833.01 2851.23 2865.04 2881.24 2894.53 2910.58 2943.29 2947.09 2918.58 2898.68 2884.53 2871.45 2852.9 2833.5 2817.08 2804.89 2790.28 2783.26 2807.17 2783.47 2772.76 2782.98 2766.97 2754.66 2715.55 2697.9 2689.44 2694.28 2647.82 2614.05 2587.09 2556.68 2526.01 2474.91 2437.53 2401.78 2388.37 2367.92 2358.48 2399.85 2438.48 2468.29 2523.42 2531.03 2519.3 2502.16 2463.63 2433.99 2463.43 2484.27 2503.04 2511.41 2539.4 2614.8 2599.59 2573.26 2514.56 2484.28 2441.65 2451.69 2468.49 2471.53 2500.2 2463.4 2448.62 2438.33 2410.69 2361.78 2345.69 2382.47 2391.78 2392.35 2371.44 2358.73 2391.12 2432.16 2433.79 2468.22 2447.75 2415.49 2442.89 2438.97 2431.54 2420.89 2408.43 2403.3 2425.57 2452.99 2460.43 2429.5 2443.92 2424.43 2418.32 2420.72 2424.78 2398.21 2354.69 2334.23 2330.78 2334.22 2400.58 2393.41 2421.45 2410.52 2399.14 2378.25 2410.84 2441.67 2451.26 2443.33 2428.17 2436.54 2459.46 2484.15 2508.83 2537.7 2568.58 2591.34 2503.28 2442.97 2434.08 2427.49 2384.49 2329.73 2289.96 2264.47 2261.73 2240.21 2221.77 2216.2 2209.56 2203.28 2195.3 2187.03 2179.69 2173.65 2167.02 2159.31 2152.45 2145.12 2135.62 2129.59 2138.42 2141.99 2114.19 2142.98 2143.16 2144.08 2144.43 2143.93 2142.79 2111.67 2070.88 2052.53 2045.9 2069.14 2056.44 2151.92 2247.45 2255.79 2276.57 2220.82 2180.94 2153.52 2136.89 2151.26 2139 2120.98 2110.16 2107.75 2114.51 2076.41 2092.84 2101.47 2112.46 2105.91 2076.05 2103.55 2170.09 2168.19 2148.78 2128.55 2119.59 2134.54 2165.18 2136.96 2106.39 2092.94 2090.12 2081.39 2065.85 2060.02 2055.36 2062.55 2107.06 2152.8 2150.14 2155.4 2156.52 2166.97 2165.58 2187.76 2200.74 2182.55 2201.17 2194.79 2184.74 2177.42 2171.66 2157.87 2147.43 2141.06 2134.67 2129.19 2125.04 2126.68
2313.18 2274.4 2304.26 2317.21 2314.69 2292.85 2243.66 2198.32 2183.09 2187.08 2186.61 2158.95 2135.18 2133.06 2158.23 2153.66 2154.5 2179.12 2190.5 2205.99 2225.17 2227 2254.86 2328.31 2311.29 2308.46 2281.46 2307.56 2309.39 2299.21 2322.89 2328.95 2336.51 2344.37 2335.91 2335.52 2347.59 2358.74 2371.93 2377.42 2394.7 2408.81 2416.54 2417.31 2409.36 2401.69 2400.53 2358.23 2395.61 2359.27 2387.74 2411.6 2419.49 2431.1 2445.27 2455.66 2465.15 2473.43 2474.34 2472 2453.56 2424.45 2411.45 2410.5 2408.22 2384.14 2405.91 2427.15 2439.2 2457.3 2466 2449.89 2447.12 2452.45 2456.9 2469.55 2484.16 2495.84 2509.6 2525.12 2540.83 2550.53 2559.56 2568.62 2581.91 2598.24 2610.54 2625.87 2635.85 2648.32 2666.99 2682.96 2695.31 2711.7 2726.77 2734.12 2747.13 2756.03 2762.76 2774.03 2783.5 2792.15 2801.41 2812.56 2828.28 2845.9 2865.92 2881.72 2893.33 2908.67 2940.92 2939.88 2918.03 2901.08 2883.48 2867.63 2851.76 2839.44 2823.97 2806.18 2787.03 2772.81 2803.07 2785.13 2761.58 2757.84 2754.79 2743.54 2744.93 2727.81 2700.91 2684.41 2640.78 2614.4 2600.92 2579.21 2552.84 2514.69 2470.74 2429.15 2405.96 2378.14 2350.04 2372.8 2418.31 2458.45 2516.92 2525.08 2513.02 2501.03 2468.88 2435.56 2474.13 2496.81 2482.55 2502.63 2519.39 2566.24 2543.68 2535.52 2500.39 2462.32 2444.17 2424 2434.17 2452.91 2482.39 2446.49 2422.87 2398.92 2374.21 2357.66 2340.26 2362.77 2386.04 2382.78 2379.21 2354.66 2350.63 2408.53 2414.06 2435.42 2402.06 2430.56 2415.66 2411.89 2398.94 2395.68 2389.25 2411.55 2446.65 2476.08 2452.8 2418.17 2416.3 2420.24 2408.65 2417.04 2426.94 2405.58 2406.96 2378.01 2345.42 2322.48 2346.85 2361.22 2386.92 2385.33 2402.42 2359.45 2453.07 2482.17 2476.92 2458.3 2447.32 2451.93 2467.36 2486.24 2507.94 2537.98 2566.72 2583.15 2491.66 2421.57 2382.18 2380.77 2368.89 2324.81 2291.63 2262.69 2247.37 2232.12 2213.93 2206.58 2203.3 2198.18 2191.09 2183.68 2178.3 2170.57 2163.52 2154.9 2149.76 2155.34 2149.96 2141.05 2112.51 2120.98 2107.4 2138.56 2138.58 2141.64 2141.09 2141.75 2141.69 2096.23 2082.45 2065.38 2055.85 2068.68 2066.76 2175.6 2236.41 2225.32 2229.24 2218.81 2175.51 2148.19 2138.87 2143.99 2137.94 2122.75 2111.95 2087.14 2099.63 2091.18 2077.96 2096.74 2094.3 2085.01 2069.89 2116.33 2170.05 2146.92 2137.38 2118.62 2121.29 2148.32 2156.58 2138.31 2122.16 2094.91 2076.51 2074.43 2060.54 2052.52 2055.11 2086.71 2134.7 2164.9 2161.49 2161.14 2168.8 2177.63 2175.98 2176.88 2196.21 2206.78 2202 2193.51 2187.55 2183.85 2173.42 2160.12 2150.08 2141.24 2133.9 2128.98 2128.84 2125.98
2263.7 2286.27 2323.09 2318.34 2245.75 2203.16 2187.86 2179.52 2166.02 2171.27 2157.72 2129.82 2158.57 2171.91 2151.52 2157.43 2178.57 2194.09 2196.92 2209.9 2217.97 2224.51 2280.37 2322.58 2330.71 2317.22 2289.62 2319.34 2324.38 2315.92 2329.15 2334.18 2341.21 2347.02 2341.06 2342.08 2349.36 2354.61 2365.8 2387.78 2403.8 2411.09 2410.97 2413.83 2406.52 2398.51 2390.5 2350.85 2372.02 2404.85 2417.74 2420.8 2432.02 2436.42 2443.95 2454.31 2466.11 2470.24 2461.41 2445.97 2413.96 2402.24 2403.11 2396.88 2381.75 2396.05 2421.86 2427.96 2425.96 2441.14 2456.41 2464.29 2447.45 2475.89 2486.81 2490.78 2484.73 2496.19 2516.5 2531.67 2545.77 2552.82 2551.71 2558.99 2570.97 2583.21 2612.03 2628.41 2637.06 2650.96 2667.29 2677.94 2693.75 2705.5 2719.57 2733.96 2744.51 2756.39 2767.85 2780.77 2786.45 2793.48 2802.84 2816.28 2830.55 2840.68 2865.9 2882.73 2896.01 2908.18 2935.93 2945.58 2937.66 2928.66 2916.33 2893.67 2871.09 2853.85 2829.36 2805.18 2781.15 2767.42 2796.64 2785.21 2779.65 2747.06 2732.74 2732.75 2732.13 2725.14 2700.9 2674.93 2647.25 2612.5 2598.3 2577.34 2563.29 2522.46 2474.11 2453.22 2407.79 2371.76 2351.04 2351.19 2388.55 2446.35 2495.87 2522.56 2506.66 2497.99 2469.91 2420.32 2456.32 2458.72 2481.92 2479.53 2499.84 2517.53 2530.1 2512.19 2500.89 2484.2 2475.11 2443.75 2407.88 2422.6 2449.13 2452.08 2458.61 2423.45 2389.06 2364.69 2338.61 2337.2 2366.9 2386.62 2375.37 2361.52 2329.36 2381.98 2377.28 2382.69 2408.27 2378.65 2398.12 2370.19 2368.52 2393.17 2398.08 2435.79 2470.08 2465.22 2442.38 2416.91 2395.46 2388.11 2412.39 2408.76 2410.87 2414.43 2402.63 2376.28 2382.23 2342.67 2316.61 2326.97 2331.12 2339.53 2336.69 2368.95 2428.94 2460.51 2495.97 2464.18 2457.76 2471.22 2486.36 2507.73 2535.04 2570.81 2605.47 2548.64 2475.78 2409.03 2353.89 2341.9 2343 2307.16 2285.3 2259.54 2235.04 2222.65 2212.85 2203.56 2194.26 2190.12 2186.85 2180.88 2175.99 2169.93 2161.98 2159.41 2148.85 2148.94 2130.87 2119.12 2116.92 2124.95 2126.43 2099.24 2133.88 2136.83 2137.59 2139.35 2137.01 2091.42 2057.49 2054.07 2054.7 2024.59 2083.6 2166.38 2218.82 2194.83 2197.39 2201.45 2169.05 2163.04 2148.33 2123.64 2116.86 2119.13 2104.69 2084.67 2069.57 2089.74 2068.16 2092.02 2077.06 2064.13 2079.15 2117.14 2145.64 2130.31 2113.9 2112.73 2125.05 2150.04 2152.7 2134.6 2123.64 2097.1 2078.12 2067.42 2060.28 2053.01 2089.25 2115.99 2103.69 2126.72 2156.86 2153.3 2172.12 2182.93 2192.68 2199.34 2197.5 2208.77 2204.37 2197.67 2186.4 2177.05 2181.27 2157.15 2148.5 2140.83 2135.01 2129.01 2124.06 2122.93
2300.73 2330.43 2303.87 2228.63 2190.47 2176.49 2172.68 2167.74 2161.41 2156.1 2128.17 2141.95 2177.84 2183.56 2182.02 2175.34 2191.35 2198.79 2208.65 2212.26 2224.61 2242.54 2312.37 2319.29 2324.94 2319.98 2312.53 2324.85 2329.97 2330.87 2329.34 2340.47 2348.36 2353.23 2346.83 2342.68 2356.69 2369.16 2372.81 2396.2 2412.75 2405.68 2407.42 2408.84 2394.92 2362.78 2346.48 2374.12 2401.03 2413.15 2423.63 2428.36 2433.66 2449.69 2459.83 2467.02 2469.4 2461.36 2447.99 2416.96 2395.88 2385.04 2376.43 2380.87 2403.64 2411.76 2409.43 2411.33 2434.12 2440.05 2440.62 2462.11 2464.21 2480.96 2482.25 2504.88 2508.51 2500.01 2503.83 2523.85 2531.18 2540.23 2540.7 2555.4 2567.26 2580.18 2606.2 2619.99 2634.41 2649.6 2671.68 2695.57 2705.07 2712.37 2720.47 2730.93 2746.26 2761.44 2775.34 2786.32 2793.41 2799.05 2811.17 2825.29 2840.22 2853.31 2868.61 2883.39 2897.62 2909.1 2930.84 2928.81 2914.04 2905.63 2903.13 2869.88 2852.11 2835.2 2815.51 2795.23 2775.34 2761.87 2788.95 2785.1 2776.8 2756.58 2731.61 2711.86 2708.06 2721.38 2695.41 2671.5 2651.58 2625.45 2595.4 2580.58 2566.28 2536.64 2506.19 2473.57 2431.73 2385.3 2352.58 2340.6 2367.95 2420.99 2468.7 2520.76 2500.95 2489.71 2460.2 2412.44 2441.74 2456.86 2467.62 2461.16 2473.88 2480.42 2496.46 2501.26 2520.24 2510.03 2475.6 2455.9 2439.12 2398.4 2423.14 2413.2 2431.76 2409.19 2378.36 2362.88 2347.06 2322.6 2347.16 2384.22 2358.86 2353.06 2335.01 2356.08 2358.55 2379.93 2349.53 2342.72 2344.2 2378.22 2386.61 2398.97 2425.85 2475.8 2467.47 2443.61 2419.38 2415.42 2412.82 2384.61 2415.19 2403.64 2402.79 2374.12 2395.75 2395.04 2396.59 2381.49 2348.14 2334.88 2309.65 2310.75 2313.55 2346.37 2384.76 2418.61 2441.01 2419.21 2445.61 2502.31 2532.16 2553.72 2592.29 2601.98 2605.03 2527.72 2455.32 2402.55 2349.15 2312.9 2321.97 2293.72 2262.84 2254.94 2235.03 2222.41 2211.98 2203.31 2194.23 2184.71 2176.39 2170.36 2165.13 2154.43 2146.79 2146.73 2139.82 2129.39 2142.23 2131.28 2125.41 2093.44 2111.03 2111.58 2097.98 2117.12 2136.98 2137.82 2136.77 2096.05 2079.55 2064.21 2028.41 2018.37 2061.64 2126.31 2184.83 2175.23 2157.46 2168.72 2175.25 2138.35 2151.76 2140.59 2121.66 2101.84 2105.12 2093.4 2079.22 2060.42 2067.67 2077.59 2070.29 2058 2087.55 2121.58 2114.79 2103.98 2128.3 2133.62 2146.87 2151.66 2123.66 2117.11 2121.88 2095.37 2077.55 2061.98 2057.02 2056.63 2072.43 2081.27 2098.94 2135.81 2147.23 2144.41 2174.54 2182.92 2197.54 2201.59 2200.38 2208.95 2206.85 2196.17 2189.43 2172.35 2168.73 2160 2145.95 2140.03 2135.12 2123.84 2115.9 2120.61
2305.33 2262.21 2217.41 2197.55 2188.24 2167.9 2157.53 2151.23 2144.69 2145.65 2119.93 2156.05 2190.44 2200.65 2204.72 2196.48 2204.99 2206.54 2210.29 2217.12 2230.33 2280.26 2312.97 2325.19 2331.27 2330.66 2328.94 2328 2337.05 2338.38 2340.83 2339.9 2345.78 2352.04 2360.33 2349.46 2361.24 2368.91 2383.39 2405.53 2415.25 2405.07 2397.2 2388.83 2339.74 2361.73 2389.23 2406.5 2407.54 2413.47 2423.28 2434.16 2446.03 2453.15 2460.04 2459.94 2456.55 2447.87 2414.87 2391.06 2382.36 2366.63 2391.33 2398.6 2417.69 2426.22 2431.73 2436.45 2438.63 2454.46 2465.78 2479.64 2474.39 2485.48 2500.46 2499.42 2515.73 2520.08 2517.99 2512.01 2518.99 2534.65 2557.18 2577.14 2583.23 2594.59 2607.81 2623.14 2643.63 2661.14 2679.88 2692.76 2691.15 2702.97 2716.06 2727.45 2744.11 2756.31 2768.49 2782.87 2791.43 2805.38 2823.06 2834 2846.22 2860.16 2870.36 2886.62 2902.36 2915.94 2942.27 2932.02 2919.9 2897.54 2874.68 2857.3 2837.52 2818.71 2798.1 2780.9 2762.39 2755.98 2774.73 2781.06 2767.96 2750.36 2739.05 2704.11 2682.88 2703.13 2699.96 2693.64 2662.49 2639.85 2610.74 2583.87 2566.39 2552.78 2538.96 2498.73 2457.93 2406.11 2366.08 2343.73 2360.78 2413.57 2453.8 2518.43 2494.83 2471.67 2462.7 2414.02 2425.96 2447.04 2439.99 2455.72 2450.84 2443.05 2462.56 2467.33 2469.79 2519.7 2496.08 2462.52 2443.26 2414.42 2386.83 2389.51 2409.2 2410.67 2402.06 2392.31 2369.29 2339.99 2362.31 2335.15 2345.25 2354.12 2327.89 2307.68 2333.88 2317.27 2356.59 2382.09 2365.81 2383.07 2377.71 2420.85 2467.33 2484.9 2456.02 2441.71 2438.28 2426.56 2408.65 2385.05 2376.72 2373 2367.04 2364.51 2359.14 2359.01 2351.75 2356.21 2356.57 2339.97 2321.02 2301.93 2303.54 2324.43 2339.61 2357.34 2368.89 2383.77 2422.35 2465.35 2516.46 2568.49 2614.81 2617.91 2560.64 2486.14 2419.03 2376.4 2340.49 2288.52 2290.26 2287.51 2259.84 2239.83 2226.23 2217.71 2208.77 2199.78 2192.07 2184.62 2178.53 2172.89 2168.08 2165.72 2160.58 2142.57 2153.78 2154.68 2150.56 2148.56 2138.7 2132.8 2087.98 2086.15 2093 2105.69 2135.8 2135.53 2135.2 2088.59 2084.03 2047.94 2027.08 2020.37 2037.29 2090.16 2135.1 2157.04 2125.01 2140.68 2158.8 2128.89 2148.54 2139.6 2117.97 2094.4 2087.02 2091.96 2078.98 2069.5 2051.86 2066.57 2060.38 2064.38 2103.19 2137.58 2109.79 2123.53 2143.58 2149.59 2171.88 2168.93 2120.43 2099.05 2096.27 2085.27 2068.98 2057.17 2050.67 2053.16 2084.53 2093.75 2106.19 2122.02 2139.57 2147.08 2162.77 2177.23 2199.69 2212.36 2220.26 2218.75 2209.34 2187.42 2177.99 2162.8 2157.24 2154.16 2144.41 2136.34 2123.01 2119.38 2121.88 2121.07
2232.37 2218.21 2212.23 2198.27 2169.48 2157.66 2142.78 2130.36 2114.39 2114.17 2136.49 2179.81 2185.23 2202.11 2219.49 2234.37 2231.6 2235.84 2233.74 2256.74 2288.9 2319.51 2324.09 2324 2336.62 2341.96 2336.11 2335.05 2342.79 2345.57 2346.19 2352.93 2351.29 2360.73 2366.14 2368.28 2375.95 2381.99 2394.78 2403.06 2407.22 2401.49 2358.2 2334.89 2367.54 2402.61 2410.22 2412.8 2414.77 2415.42 2422.42 2431.58 2437.76 2442.95 2448.11 2446.87 2429.52 2390.48 2368.55 2360.81 2364.86 2373.98 2406.06 2413.24 2412.44 2423.42 2426.83 2440.49 2451.59 2462.89 2483.03 2487.81 2489.97 2497.39 2509.4 2507.62 2513.22 2527.7 2533.13 2526.99 2540.17 2539.58 2560.38 2577.21 2589 2602.55 2620.58 2630.31 2639.03 2647.7 2652.79 2673.1 2691.45 2711.56 2725.68 2737.85 2745.4 2754.88 2767.59 2778.95 2789.36 2799.2 2818.7 2829.94 2839.68 2855.28 2870.29 2893.23 2909.74 2928.33 2940.6 2927.29 2905.4 2878.87 2859.3 2852.73 2828.27 2811.95 2792.61 2774.88 2754.48 2753.87 2768.66 2761.9 2748.28 2735.72 2721.97 2700.06 2671.73 2671.74 2696.94 2689.33 2679.29 2649.07 2631.9 2601.29 2559.41 2535.94 2526.84 2495.36 2459.12 2413.66 2388.19 2349.83 2346.2 2374.13 2421.56 2480.94 2494.85 2464.96 2439.24 2424.63 2399.9 2427.36 2433.02 2431.73 2422.2 2404.53 2426.04 2438.68 2426.58 2464.19 2461.75 2455.51 2441.75 2404.6 2416.16 2364.48 2372.11 2401.29 2400.27 2389.11 2338.18 2300.78 2316.17 2317.04 2308.07 2342.18 2312.49 2299.55 2327.31 2353.68 2407.97 2403.2 2392.01 2403.47 2412.01 2443.87 2483.66 2460.38 2433.2 2418.42 2400.91 2391.49 2385.18 2391.11 2384.75 2367.04 2352.79 2344.73 2339 2335.34 2330.84 2325.2 2315.54 2320.51 2325.48 2302.01 2296.19 2300.84 2313.1 2321.43 2331.29 2360.08 2399.52 2437.52 2474.74 2534.94 2570.24 2553.85 2485.04 2431.58 2381.88 2344.64 2322.25 2281.55 2262.05 2278.45 2246.24 2231.06 2218.98 2211.37 2205.06 2195.53 2188.77 2181.53 2176.15 2172.05 2165.41 2160.39 2161.44 2159.38 2154.97 2148.86 2141.92 2137.6 2135.55 2130.25 2124.84 2108.59 2070.01 2078.17 2126.04 2120.06 2123.91 2071.61 2054.69 2046.7 2027.48 2019.11 2028.59 2053.86 2084.04 2117.35 2096.17 2084.08 2116.69 2136.58 2146.31 2140.6 2109.22 2099.12 2074.85 2076.98 2078.75 2065.12 2062.86 2057.36 2047.4 2077.42 2085.3 2124.46 2117.56 2112.09 2141.08 2153.54 2174.79 2177.7 2149.98 2132.75 2095.48 2076.63 2066.72 2059.69 2048.93 2055.47 2060.24 2072.77 2087.29 2121.49 2151.56 2171.92 2174.91 2193.84 2196.57 2210.67 2226.11 2216.12 2202.01 2184.96 2176.04 2169.06 2159.66 2150.89 2139.46 2131.83 2129.09 2130.26 2125.45 2126.5
2219.77 2210.79 2198.97 2180.47 2161.38 2141.94 2134.76 2115.19 2109.2 2129.47 2153.08 2169.71 2194.84 2220.09 2223.4 2240.17 2244.33 2288.63 2286.17 2311.39 2319.54 2321.45 2328.62 2331.36 2336.24 2347.34 2344.23 2344.76 2346.48 2355.12 2356.96 2360.72 2355.22 2360.76 2370.06 2384.27 2392.17 2396.42 2401.84 2396.09 2386.48 2352.44 2326.99 2363.79 2398.86 2410.21 2414.22 2418.13 2422.68 2424.21 2423.84 2428.53 2427.95 2431.36 2421 2382.13 2348.32 2356.51 2358.41 2366.79 2381.81 2398.92 2400.27 2412.3 2421.64 2419.68 2435.36 2447.33 2454.43 2479.62 2488.79 2494.27 2500.41 2503.43 2511.14 2516.62 2520.84 2526.01 2550.78 2553.53 2545.72 2559.73 2557.7 2565.88 2586.59 2598.8 2597.34 2621.97 2637.02 2649.94 2649.02 2683.4 2706.53 2719.57 2732.76 2745.26 2753.24 2759.11 2764.9 2774.64 2788.78 2800.86 2814.29 2825.48 2843.59 2860.27 2877.62 2897.39 2919.42 2942.01 2930.4 2912.13 2884.96 2848.88 2837.64 2828.44 2801.71 2798.54 2780.98 2761.93 2741.8 2756.65 2776.58 2757.29 2748.82 2728.21 2703.61 2681.1 2661.01 2650.09 2685.14 2676.49 2682.31 2653.78 2635.88 2619.29 2571.14 2545.82 2520.4 2485.24 2457.73 2435.03 2405.24 2348.26 2330.6 2364.25 2398.2 2443.25 2488.19 2484.35 2463.4 2446.06 2403.02 2419.4 2407.48 2416.23 2402.62 2384.76 2398.85 2399.85 2386.17 2417.5 2427.31 2406.99 2437.03 2433.08 2427.25 2390.72 2361.81 2367.52 2395.68 2383.37 2349.8 2323 2291.9 2293.92 2306.96 2336.03 2309.19 2292.62 2325.22 2348.74 2391.64 2454.51 2449.66 2461.78 2433.51 2467.18 2467.35 2445.36 2438.18 2434.38 2429.54 2410.32 2397.48 2380.39 2374.32 2353.9 2363.88 2366.15 2364.9 2359.58 2350.17 2336.05 2315.56 2308.13 2304.97 2302.62 2302.85 2294.69 2288.39 2298.2 2313.15 2342.17 2377.41 2410.14 2444.63 2484.64 2515.23 2492.07 2427.62 2381.92 2343.47 2314.41 2295.59 2267.06 2254.68 2246.83 2239.43 2227.99 2218.21 2207.28 2198.5 2193.1 2187.53 2180.74 2175.3 2172 2167.6 2164.08 2160.49 2154.8 2147.74 2143.13 2141.79 2137 2129.24 2121.72 2110.2 2099.99 2077.96 2064.68 2071.16 2100.63 2110.05 2074.57 2049.56 2037.97 2027.28 2021.05 2013.57 2013.75 2074.46 2065.66 2075.31 2060.64 2082.59 2153.46 2138.83 2111.55 2106.71 2094.49 2083.13 2069.73 2067 2069.18 2067.25 2052.04 2038.61 2066.23 2071.04 2115.57 2124.7 2121.38 2150.02 2145.7 2151.2 2152.58 2147.69 2117.21 2100.32 2088.73 2076.07 2058.01 2047.61 2056.51 2070.09 2066.58 2084.6 2098.21 2123.36 2153.59 2178.4 2192.2 2208.93 2230.03 2207.76 2204.19 2192.62 2186.22 2176.73 2165.28 2153.21 2147.5 2140.25 2139.68 2136.93 2131.37 2132.17 2127.22
2196.28 2195.42 2183.05 2164.29 2149.3 2131.21 2124.15 2104.59 2137.26 2149.95 2164.2 2177.66 2201.24 2221.8 2223.99 2256.51 2258.65 2315.63 2310.61 2321.05 2325.9 2325.49 2334.26 2337.86 2340.39 2341.55 2353.83 2360.33 2357.73 2365.27 2372.82 2375.16 2366.71 2370.85 2386.67 2394.51 2396.72 2389.32 2394.21 2391.2 2321.7 2334.26 2371.97 2400.79 2409.93 2414.46 2419.59 2425.76 2433.62 2434.04 2427.44 2413.69 2392.43 2384.26 2356.19 2343.2 2367.93 2382.47 2386.76 2390.91 2375.91 2385.56 2411.06 2420.68 2430.51 2439.46 2433.38 2465.93 2478.54 2475.41 2494.43 2506.81 2504.26 2505.51 2518.14 2526.56 2533.22 2541.66 2554.06 2564.79 2566.75 2564.97 2588.22 2598.35 2600.32 2613.77 2622.2 2634.95 2668.77 2675.75 2686.96 2680.91 2681.13 2706.6 2730.27 2747.48 2755.66 2762.69 2770.53 2778.86 2789.36 2800.67 2818.32 2833.16 2850.06 2867.66 2887.1 2907.37 2925.91 2940.36 2927.83 2906.34 2863.11 2834.09 2819.89 2806.63 2790.31 2771.1 2766.03 2747.62 2735.27 2765.58 2774.91 2765.18 2753.03 2722.75 2702.83 2683.36 2666.05 2645.95 2662.6 2658.8 2671.43 2660.66 2637.42 2619.06 2574.55 2551.28 2526.2 2504 2489.13 2465.8 2416.36 2356.34 2325.38 2354.07 2389.07 2415.2 2469.46 2487.13 2474.23 2447.6 2411.82 2369.1 2386.23 2395.07 2384.6 2363.6 2387.1 2370.78 2367.48 2394.96 2385.16 2402.96 2439.26 2452.97 2454.12 2407.67 2385.83 2338.67 2387.71 2382.69 2369.87 2323.18 2313.95 2280.33 2324.7 2314.26 2281.22 2301.92 2351.56 2404.93 2448.47 2471.7 2489.9 2490.16 2451.28 2503.45 2494.33 2463.7 2457.36 2436.81 2415.6 2404.46 2391.63 2371.42 2369.37 2365.98 2356.81 2352.49 2348.53 2337.89 2331.19 2319.5 2323.11 2332.33 2354.2 2343.88 2323.48 2309.78 2297.5 2284.7 2296.46 2321.13 2351.17 2387.21 2411.86 2440.57 2466.5 2444.17 2385.59 2341.41 2313.87 2295.5 2276.04 2254.44 2247.17 2245.3 2233.85 2223.59 2214.5 2204.61 2194.92 2187.03 2183.11 2178.28 2169.22 2159.09 2153.08 2147.28 2144.25 2139.88 2136.22 2136.25 2131.21 2124.98 2122.5 2120.39 2117.37 2107.72 2107.38 2091.97 2073.04 2054.74 2066.74 2082.36 2060.33 2051.49 2041.15 2027.34 2014.52 2007.91 2031.9 2056.18 2055.78 2041.2 2070.12 2136.64 2130.19 2117.11 2098.76 2080.26 2085.12 2073.71 2067.92 2053.36 2050.52 2054.44 2035.35 2062.28 2065.49 2134.65 2150.3 2123.75 2114.09 2140.3 2148.34 2151.85 2142.54 2114.26 2082.58 2087.43 2071.76 2049.88 2051.41 2079.54 2077.16 2072.71 2080.09 2091.1 2103.33 2158.03 2169.92 2192.81 2222.25 2207.67 2192.67 2193.62 2186.44 2179.07 2180.83 2170.2 2165.04 2154.75 2148.27 2144.75 2138.58 2127.24 2124.04 2124.97
2154.85 2159.52 2158.8 2157.09 2130.81 2122.64 2102.58 2104.35 2154.79 2165.47 2171.67 2179.65 2198.98 2221.08 2234.37 2261.18 2286.63 2324.38 2321.59 2324.12 2333.15 2336.12 2337.67 2345.51 2349.67 2351.08 2353.5 2362.12 2375.67 2381.02 2381.62 2382.01 2380.97 2385.61 2394.28 2401.65 2389.71 2378.6 2375.49 2327.47 2321.93 2370.83 2401.51 2411.77 2417.71 2423.11 2428.4 2434.88 2432.76 2430.68 2413.22 2397.79 2382.56 2357.03 2335.52 2370.25 2387.48 2395.91 2399.4 2401.22 2395.54 2394.64 2406.8 2424.23 2438.32 2450.83 2450.04 2461.5 2475.21 2496.64 2507.17 2517.57 2514.16 2506.17 2519.63 2531.62 2543.72 2555.31 2568.72 2579.57 2584.02 2585.3 2589.61 2614.84 2630.98 2642.16 2652.11 2656.66 2665.78 2688.85 2701.09 2711.3 2708.19 2706.79 2713.03 2734.07 2751 2761.75 2769.4 2780.3 2791.97 2801.4 2817.81 2836.86 2855.54 2887.3 2905.77 2911.09 2916.32 2922.71 2907.29 2881.11 2833.89 2813.5 2799.1 2789.16 2777.82 2766.59 2754.36 2734.13 2738.58 2778.75 2782 2766.87 2747.35 2726.9 2710.09 2698.71 2678.72 2654.46 2618.93 2622.05 2633.89 2642.3 2628.59 2612.11 2597.03 2576.68 2557.2 2539.16 2522.48 2483.78 2428.56 2375.52 2333.79 2321.01 2367.31 2405.02 2431.86 2475.97 2480.37 2450.46 2424.13 2384.67 2347.55 2376.31 2370.56 2354.61 2387.29 2355.29 2360.74 2361.1 2361.06 2398.97 2435.31 2411.76 2413.39 2415.45 2396.95 2345.81 2325.01 2326.21 2358.78 2359.23 2320.26 2275.44 2306.65 2306.8 2274.16 2310.7 2356.21 2389.01 2468.36 2485.8 2496.82 2495.48 2485.38 2475.08 2491.57 2456.11 2428.05 2408.96 2398.11 2392.97 2386.28 2379.75 2359.86 2357.16 2347.69 2341.53 2334.76 2328.1 2323.76 2329.8 2336.24 2344.41 2382.72 2386.21 2348.63 2334.04 2322.32 2309.44 2286.48 2298.87 2340.97 2372.95 2397.19 2396.56 2415.07 2398.45 2349.89 2316.12 2292.13 2291.31 2272.94 2249.43 2238.92 2245.1 2231.3 2221.85 2215.17 2205.58 2197.4 2188.56 2183.15 2178.57 2174.94 2167.23 2168.88 2165.11 2161.08 2160.83 2156.53 2156.06 2151.55 2149.84 2144 2137.75 2131.54 2132.9 2122.76 2085.49 2068.63 2067.8 2052.92 2045.17 2044.08 2061.48 2070.36 2033.58 2014.59 2008.84 2005.06 2007.86 2039.57 2027.52 2060.41 2108.66 2117.35 2089.82 2077.88 2071.92 2070.33 2060.63 2070.08 2068.03 2054.23 2039.78 2038.5 2030.25 2040.05 2099.48 2103.82 2124.94 2078.14 2132.77 2139.95 2145.17 2134.39 2126.29 2086.15 2061.12 2048.07 2052.68 2070.53 2073.48 2081.56 2079.24 2085.11 2102.46 2113.74 2155.28 2181.73 2207.61 2211.27 2207.82 2191.7 2179.01 2181.47 2172.93 2174.39 2165.85 2158.14 2153.96 2152.29 2145.88 2138.78 2130.91 2118.71 2122.58
2133.05 2130.22 2131.77 2122.46 2121.52 2102.21 2108.79 2115.06 2142.1 2174.15 2182.09 2203.12 2210.4 2220.3 2240.49 2262.86 2324.57 2335.75 2330.05 2328 2335.57 2344.24 2347.45 2351.33 2357.36 2363.68 2365.61 2372.44 2377.46 2378.23 2365.88 2371.84 2381.66 2388.27 2395.9 2401.07 2384.67 2327.17 2315.11 2317.42 2363.17 2391.51 2411.64 2419.87 2427.53 2429.35 2429.71 2425.64 2411.68 2393.38 2388.79 2375.05 2343.11 2336.42 2363.66 2380.79 2400.41 2405.17 2407.71 2410.62 2411.2 2404.25 2409.57 2433.72 2427.06 2437.24 2466.77 2482.07 2494.78 2496.3 2512.03 2523.36 2520.68 2521.43 2521.2 2537.04 2556.27 2566.27 2580.11 2596.05 2600.37 2605.09 2607.41 2610.16 2633.71 2646.14 2659.54 2671.78 2678.79 2691.64 2710.37 2725.96 2739.28 2744.69 2749.4 2731.1 2751.43 2762.84 2774.7 2787.67 2796.15 2809.03 2822.55 2840.77 2860.37 2886.55 2904.98 2895.04 2860.67 2856.81 2864.78 2852.6 2821.53 2795.24 2781.35 2770.02 2756.91 2747.87 2743.29 2722.77 2739.12 2779.63 2788.21 2770.56 2754.24 2736.11 2736.89 2721.99 2696.75 2658.69 2633.41 2603.33 2598.02 2615.68 2630.76 2611.17 2590.36 2562.85 2570.2 2587.18 2534.94 2496.07 2458.42 2402.03 2357.46 2320.72 2318.41 2356.68 2382.54 2449.37 2472.01 2447.34 2428.14 2392.16 2372.73 2335.81 2361.51 2354.08 2381.38 2353.06 2351.78 2340.39 2376.48 2415.21 2445.08 2412.09 2373.88 2376.24 2395.23 2391.65 2384.39 2347.58 2304.95 2337.1 2320.48 2276.16 2267.08 2273.76 2267.49 2316.76 2337.48 2379.31 2465.49 2472.09 2488.16 2466.65 2471.97 2448.09 2484.55 2480.43 2460.31 2440.1 2423.79 2402.84 2379.26 2365.78 2355.04 2348.4 2346.11 2338.96 2336.56 2342.38 2344.55 2344.95 2352.5 2357.47 2392.69 2427.62 2389.53 2371.74 2364.04 2353.72 2327.37 2289.75 2362.17 2380.67 2366.5 2354.38 2373.25 2361.03 2325.27 2293.85 2275.3 2257.59 2256.55 2241.13 2233.65 2232.69 2225.3 2216.94 2210.14 2202.87 2198.28 2192.87 2186.86 2182.09 2177.96 2173.98 2170.15 2165.37 2161.44 2159.44 2149.75 2139.95 2130.65 2120.7 2118.91 2107.52 2101.02 2094.63 2095.6 2111.94 2127.88 2110.53 2074.32 2058.5 2046.16 2034.76 2040.92 2044.86 2035.2 2017.04 2007.73 2004.72 2001.83 2013.42 2051.52 2080.78 2088.8 2067.17 2073.55 2072.42 2057.98 2059.06 2056.78 2063.35 2049.44 2050.45 2033.78 2025.09 2034.03 2084.6 2086.52 2074.39 2089.95 2118.15 2133.45 2116.86 2101.99 2110.28 2050.76 2062.64 2065.68 2077.02 2076.96 2074.6 2087.56 2078.17 2084.93 2104.65 2116.33 2177.34 2194.25 2224.66 2204.31 2185.87 2191.09 2179.6 2169.64 2174.7 2168.69 2162 2153.36 2145.34 2142.14 2143.23 2144.54 2133.97 2124.98 2121.19
2171.48 2150.45 2117.24 2121.06 2097.85 2093.68 2125.03 2158.42 2161.28 2180.8 2190.1 2199.34 2218.79 2226.73 2241.17 2295.92 2333.59 2343.97 2337.3 2334.97 2343.66 2348.3 2355.26 2359.93 2365.6 2371.37 2374.22 2376.43 2373.11 2365.5 2354.22 2364.07 2375.54 2389.92 2391.56 2388.46 2355.57 2311.65 2337.1 2378.67 2392.26 2408.45 2417.01 2424.67 2427.21 2423.46 2411.52 2389.73 2382.94 2373.56 2372.19 2318.47 2361.18 2387.06 2377.24 2383.71 2401.67 2415.83 2418.77 2419.38 2422.96 2427.28 2422.62 2421.72 2444.04 2464.93 2471.95 2492.1 2508.81 2514.34 2520.55 2529.97 2531.23 2534.57 2532.22 2539.73 2556.04 2572.88 2593.16 2608.58 2612.8 2621.4 2625.57 2630.18 2630.45 2648.35 2662.09 2676.79 2692.3 2705.99 2714.32 2729.58 2747.69 2760.92 2765.83 2744.56 2752.88 2768.8 2784.9 2799.3 2808.64 2820.24 2833.23 2848.75 2869.9 2878.53 2891.43 2850.12 2813.99 2813.55 2814.51 2819.5 2813.54 2790.57 2773.69 2754.61 2740.9 2733.98 2723.48 2714.72 2739.72 2775.67 2787.24 2768.18 2753.5 2752.59 2737.25 2709.35 2684.74 2664.64 2641.01 2612.57 2589.97 2578.28 2610.92 2611.46 2591.92 2561.33 2546.55 2585.84 2568.87 2537.26 2492.79 2443.81 2392.62 2339.23 2311.1 2324.93 2348.03 2400.62 2456.12 2435.05 2413.44 2389.46 2357.29 2344.5 2336.48 2356.39 2360.22 2349.41 2334.01 2352.95 2368.85 2390.52 2439.87 2429.92 2409.42 2378.9 2348.31 2384.82 2378.42 2363.71 2325.48 2292.59 2286.86 2274.53 2265.21 2260.71 2272.5 2350.17 2352.81 2391.44 2462 2462.73 2440.23 2463.69 2465.61 2437.56 2460.32 2457.7 2438.04 2437.59 2413.37 2396.79 2382.61 2370.47 2361.4 2358.41 2345.3 2342.45 2356.92 2366.79 2370.9 2373.1 2376.74 2387.74 2405.1 2424.19 2441.75 2439.01 2432.35 2424.87 2374.44 2274.15 2311.32 2331.14 2323.39 2315.12 2339.45 2357.46 2337.82 2291.92 2263.8 2253.47 2244.91 2235.96 2229.57 2221.85 2217.46 2215.23 2209.13 2204.44 2199.7 2193.37 2187.13 2182.13 2176.83 2169.4 2160.43 2155.82 2149.29 2146.65 2153.01 2155.06 2149.41 2144.58 2139.82 2115.82 2131.63 2132.05 2132.94 2132.63 2131.18 2131.91 2098.4 2072.73 2057.18 2040.23 2029.85 2025.99 2020.05 2014.47 2021.36 2005.64 2000.83 2005.66 2033.13 2052.63 2057.03 2057.05 2054.72 2062 2063.61 2050 2041.28 2046.06 2056.27 2031.21 2021.01 2017.35 2039.13 2069.87 2051.2 2062.8 2096.78 2100.16 2099.44 2082.74 2090.65 2108.3 2082.9 2087.42 2072.64 2062.75 2071.26 2080.57 2090.32 2082.42 2088.96 2108.31 2127.73 2172.91 2197.55 2193.76 2211.24 2179.79 2180.77 2180.02 2162.35 2170.07 2170.3 2158.01 2154.6 2144.74 2134.46 2133.81 2146.67 2130.68 2119.89 2118.95
2195.37 2180.75 2165.26 2125.18 2109.72 2094.44 2109.45 2129.39 2117.08 2160.1 2197 2203.82 2223.82 2214.08 2253.08 2271.72 2262.11 2288.72 2332.6 2342.56 2349.68 2354.64 2356.51 2347.58 2330.46 2343.13 2313.01 2315.49 2344.9 2344.32 2355.9 2369.18 2377.94 2383.89 2374.83 2348.81 2290.34 2324.11 2373.73 2405.19 2410.18 2414.4 2422.42 2425.39 2415.32 2391.55 2366.43 2351.44 2358.88 2326.96 2318.51 2354.2 2399.08 2406.11 2388.09 2406.9 2402.82 2405.24 2423.62 2428.12 2430.41 2435.36 2440.47 2429.66 2463.27 2473.25 2489.51 2506.62 2513.92 2522.29 2528.79 2537.35 2540.16 2542.47 2548.7 2554.26 2554.5 2579.62 2604.64 2618.01 2618.98 2617.37 2628.54 2640.19 2639.75 2650.98 2670.02 2687.46 2702.24 2716.97 2731.6 2740.93 2754.41 2769.66 2776.64 2766.14 2762.55 2774.74 2786.17 2803.78 2818.39 2830.39 2840.99 2863.61 2884.91 2870.14 2875.04 2819.46 2806.18 2802.06 2788.81 2782.03 2793.31 2785.9 2770.91 2755.18 2733.94 2716.11 2713.02 2708.54 2749.5 2784.06 2788.02 2773.84 2761.33 2760.42 2730.98 2702.36 2676.95 2661.15 2642.61 2623.29 2596.13 2570.8 2561.34 2590.22 2593.18 2565.94 2523.89 2563.08 2574.84 2566.99 2540.19 2497.01 2442.55 2372.31 2329.72 2303.25 2322.01 2343.78 2392.39 2414.57 2397.19 2383.15 2347.63 2325.7 2309.01 2345.72 2334.34 2326.77 2317.12 2340.47 2351.53 2389.34 2409.31 2393.65 2388.48 2387.73 2362.7 2364.27 2377.29 2372.81 2355.18 2322.05 2298.67 2285.54 2265.59 2256.93 2265.3 2348.15 2394.99 2407.39 2442.52 2431.55 2431.97 2467.59 2456.13 2434.88 2423.16 2463.54 2436.71 2425.05 2415.49 2397.59 2383.24 2369.3 2360.09 2356.4 2350.81 2350.67 2366.03 2405.92 2407.78 2419.55 2418.89 2420.89 2441.02 2453.34 2459.6 2469.95 2443.44 2412.48 2387.71 2332.58 2269.97 2273.91 2284.12 2292.3 2343.5 2391.64 2345.76 2291.19 2257.65 2245.71 2239.98 2232.47 2228.25 2222.55 2216.76 2204.33 2203.7 2203.04 2199.78 2192.93 2187.25 2184.12 2178.78 2174.09 2169.71 2164.63 2162.19 2161.96 2158.68 2150.44 2143.62 2136.19 2136.95 2141.94 2131.31 2123.35 2113.33 2105.88 2095.63 2087.58 2079.36 2063.48 2063.17 2071.52 2054.97 2051.97 2050.05 2040.52 2032.54 2025.76 2004.11 1997.96 2005.16 2023.75 2045.4 2027.51 2053.51 2065.5 2066.67 2058.41 2033.02 2044.15 2058.11 2036.37 2022.62 2015.67 2060.94 2061.68 2063.63 2054.64 2073.23 2085.48 2068.1 2080.83 2048.71 2087.1 2059.68 2069.93 2082.55 2079.11 2076.65 2078.86 2087.22 2088.12 2090.67 2101.2 2118.75 2164.58 2174.31 2183.43 2205.25 2167.82 2175.5 2173.32 2162.48 2172.71 2168.36 2160.13 2146.06 2143.99 2133.48 2140.95 2142.6 2124.26 2111.97 2114.15
2201.93 2190.02 2165.08 2134.08 2127.94 2106.04 2084.1 2085.49 2091.72 2132.09 2189.63 2201.22 2211.35 2220.1 2238.47 2226.17 2227.65 2238.16 2246.78 2285.29 2297.38 2308.13 2286.95 2253.59 2241.41 2245.08 2260.8 2248.1 2252.91 2291.33 2316 2337.6 2320.21 2341.36 2282.89 2286.94 2319.75 2358.89 2399.86 2410.18 2416.83 2421.88 2421.68 2402.25 2373.36 2345.52 2302.42 2299.92 2313.67 2336.93 2367.31 2398.19 2410.71 2416.38 2399.43 2415.74 2422.96 2422.31 2419.47 2430.59 2436.85 2450.49 2469.31 2469.55 2446.68 2469.97 2482.84 2496.92 2513.87 2523.62 2524.9 2529.09 2531.56 2539.37 2546.53 2559.19 2570.74 2570.57 2594.28 2594.69 2603.22 2615.55 2630.22 2637.03 2649.99 2659.49 2671.65 2685.81 2703.84 2720.89 2740.35 2755.99 2766.79 2778.97 2789 2784.68 2777.39 2781.95 2795.36 2808.63 2820.85 2837.22 2849.67 2880.62 2883.08 2860.93 2838.83 2792.44 2785.59 2785.5 2780.39 2763.04 2776.15 2786.05 2767.1 2750.44 2731.63 2710.87 2697.61 2715.25 2760.04 2800.48 2789.46 2779.08 2769.79 2766.25 2731.14 2701.81 2675.23 2655.94 2640.39 2619.75 2596.71 2576.78 2554.09 2537.7 2553.54 2542.66 2521.84 2505.91 2555.84 2561.94 2521.11 2472.05 2432.93 2414.94 2382.56 2328.42 2299.28 2305.85 2335.74 2341.23 2368.24 2365.73 2349.82 2313.94 2300.17 2330.67 2320.65 2312.74 2309.75 2348.98 2373.15 2368.47 2375.77 2408.4 2380.45 2346.46 2327.58 2348.39 2367.83 2367.89 2336.22 2357.47 2336.34 2303.99 2280.23 2254.6 2259.79 2332.98 2376.47 2396.83 2422.2 2403.93 2438.01 2448.53 2452.22 2428.99 2412.05 2428.44 2454.83 2427.54 2409.75 2400.63 2384.43 2373.47 2371.28 2364.99 2357 2368.71 2370.71 2400.68 2436.86 2452.75 2470.02 2456.17 2463.73 2442.87 2429.5 2430.88 2406.59 2370.44 2347.38 2319.76 2265.25 2237.77 2246.12 2292.43 2337.83 2335.9 2323.9 2276.64 2248.21 2239.98 2235.28 2230.41 2225.8 2221.42 2216.25 2211.1 2205.42 2201.31 2190.15 2174.68 2167.82 2183.87 2178.64 2172.73 2169.41 2166.23 2150.7 2146.94 2140.85 2151.69 2152.44 2148.83 2142.37 2137.59 2137.03 2135.16 2132.34 2130.09 2129.3 2115.5 2105.48 2096.16 2101.94 2092.48 2080.44 2066.61 2074.98 2068.8 2034.96 2014.89 2013.04 1996.82 1996.52 1999.94 2032.29 2019.02 2037.13 2054.57 2059.66 2047.81 2032.38 2029.09 2048.43 2032.39 2016.08 2023.63 2054.35 2035.35 2023.24 2031.95 2038.82 2060.11 2063.11 2033.26 2053.62 2055.6 2043.21 2077.2 2090.04 2083.92 2086.72 2081.79 2090.9 2098.18 2091.43 2108.47 2144.18 2176.26 2152.46 2170.73 2161.1 2154.98 2170.92 2153.59 2172.62 2166.61 2163.41 2158.93 2145.89 2137.52 2131.05 2121.34 2123.25 2115.49 2110.6 2108.32
2185.85 2176.64 2160.58 2150.62 2130.98 2118.41 2104.77 2088.26 2089.7 2130.06 2187.11 2191.16 2207.09 2212.83 2210.08 2212.19 2211.68 2216.11 2221.26 2216.84 2228.99 2228.55 2229.34 2231.27 2222.12 2223.23 2235.47 2243.7 2252.27 2263.75 2283.23 2267.84 2273.11 2261.42 2268.7 2332.12 2328.75 2384.23 2405.5 2412.58 2419.12 2413.47 2382.96 2363.98 2349.35 2287.65 2329.09 2353.22 2370.49 2365.51 2389.7 2406.42 2417.92 2424.5 2410.66 2424.05 2433.34 2436.03 2428.33 2436.82 2455.27 2470.12 2485.16 2492.76 2488.92 2483.91 2490.01 2493.63 2506.24 2511.91 2520.08 2528.12 2532.19 2540.48 2551.77 2564.14 2583.1 2597.58 2597.65 2601.95 2618.03 2629.23 2632.78 2647.95 2657.48 2661.81 2680.38 2695.88 2714.03 2729.68 2748.43 2762.77 2773.08 2786.92 2798.53 2798.13 2783.96 2787.82 2796.55 2805.72 2817.46 2835.42 2852.49 2873.5 2872.03 2850.72 2818.75 2775.26 2781.22 2790.93 2785.23 2756.4 2752.95 2775.23 2767.8 2749.63 2729.87 2707.68 2689.49 2710.09 2751.63 2795.08 2789.04 2778.77 2772.08 2762.9 2730.76 2705.42 2679.32 2658 2635.58 2610.76 2590.41 2576.99 2561.71 2540.64 2515.03 2514.33 2503.72 2487.33 2487.62 2501.8 2537.33 2530.16 2509.86 2469.37 2421.91 2374.76 2330.64 2297.93 2285.5 2286.38 2292.96 2334.26 2347.5 2313.1 2295.22 2314.54 2313.82 2300.7 2308.15 2351.89 2360.05 2337.85 2353.31 2389.3 2403.64 2390.12 2364.13 2319.11 2323.48 2355.25 2346.87 2314.7 2333.34 2289.22 2270.07 2252.6 2254.86 2306.7 2387.71 2410.65 2394.26 2410.54 2433.29 2437.9 2452.87 2432.14 2413.44 2402.36 2414.53 2421.28 2397.55 2372.92 2367.69 2362.15 2360.23 2372.68 2367.03 2377.22 2392.2 2386.4 2406.11 2419.83 2437.78 2450.44 2445.21 2402.41 2381.54 2387.01 2387.53 2342.15 2314.89 2299.8 2286.12 2252.56 2236.77 2256.26 2269.89 2282.21 2285.4 2255.69 2239.31 2235.5 2233.02 2228.37 2224.51 2221.37 2219.02 2215.22 2211.13 2206.79 2202.16 2189.22 2171.12 2160.43 2166.41 2157.04 2136.35 2133.79 2115.64 2105.85 2103.6 2098.52 2129.84 2121.43 2143.06 2144.28 2143.77 2138.03 2136.67 2131.28 2124.69 2124.02 2123.32 2116.07 2102.07 2072.93 2062.55 2052.41 2043.82 2032.31 2040.93 2030.6 2022.91 2003.06 1992.67 1992.47 2005.62 2018.69 2031.12 2042.19 2056.46 2057.72 2038.59 2016.86 2036.24 2043.09 2040.56 2011.14 2039.9 2006.89 2022.66 2026.07 2041.83 2052.26 2040.39 2035.68 2062.22 2059.91 2059.48 2059.15 2062.72 2067.6 2085.86 2088.06 2095.25 2106.17 2098.41 2127.05 2167.39 2152.93 2149.65 2140.51 2139.16 2143.07 2152.05 2157.13 2160.03 2161.54 2165.41 2155.04 2146.71 2134.76 2125.77 2118.31 2112.16 2109.72 2102.39 2105.11
2171.91 2165.21 2160.46 2156.5 2142.89 2129.36 2115.12 2096.38 2076.54 2092.67 2143.36 2188.37 2173.66 2210.94 2200.89 2193.84 2195.58 2194.11 2200.17 2213.86 2218.07 2214.86 2217.25 2220.42 2227.15 2211.48 2223.26 2216.48 2223.51 2236.67 2248.07 2241.06 2242.93 2242.44 2289.15 2308.5 2346.57 2403.38 2409.09 2398.44 2366.63 2364.45 2348.88 2334.09 2279.98 2326.53 2361.41 2380.07 2374.12 2392.69 2383.62 2399.28 2411.18 2428.91 2427.18 2430.37 2440.91 2448.34 2445.61 2460.44 2472.25 2477.97 2484 2488.73 2497.24 2501.06 2507.22 2506.88 2512.37 2513.36 2523.38 2533.01 2538.74 2545.02 2563.31 2576.65 2590.76 2607.52 2616.83 2621.17 2620.82 2635.42 2647.76 2650.3 2662.49 2678.15 2683.09 2697.03 2718.97 2740.38 2757.04 2769.69 2782.71 2794.68 2807.33 2806.76 2777.85 2784.78 2797.74 2808.3 2814.62 2831.26 2846.75 2840.29 2835.68 2809.53 2770.54 2760.15 2763.76 2774.59 2768.54 2750.96 2725.65 2738.09 2748.66 2748.57 2728.58 2708.43 2686.42 2704.13 2720.53 2749 2747.21 2768.15 2770.04 2758.76 2733.87 2707.42 2682.77 2660.32 2636.13 2612.4 2595.84 2576.73 2557.02 2543.38 2532.2 2521.45 2512.16 2502.72 2481.85 2454.51 2468.28 2505.49 2518.88 2493.48 2470.94 2421.02 2365.84 2339.72 2305.98 2286.03 2279.77 2273.79 2298.6 2311.82 2286.86 2313.07 2309.31 2291.63 2306.26 2343.04 2344.9 2314.22 2334.59 2369.49 2391.4 2387.02 2355.18 2346.83 2300.19 2331.17 2349.67 2312.17 2292.53 2272.78 2262.95 2248.75 2250.67 2324.47 2393.19 2379.34 2399.22 2433.67 2447.62 2442.59 2445.71 2423.82 2419.36 2403.08 2390.89 2385.13 2392.88 2388.26 2382.45 2376.05 2357.59 2354.62 2372.59 2385.57 2386.83 2390.61 2385.04 2388.2 2400.09 2429.22 2424.01 2378.39 2343.9 2354.44 2368.37 2322.34 2299.42 2277.24 2290.35 2275.09 2246.25 2217.63 2218.87 2232.61 2243.96 2223.25 2196.34 2203.11 2200.17 2207.48 2217.55 2205.64 2195.16 2189.37 2173.15 2172.05 2177.22 2162.23 2146.79 2128.56 2125.07 2117.43 2112.55 2109.68 2110.72 2115.33 2105.56 2092.82 2086.84 2085.47 2092.71 2105.75 2105.9 2109.13 2120.94 2117.12 2128.41 2120.22 2105.01 2102.2 2094.46 2093.99 2085.98 2082.98 2077.63 2070.91 2060.51 2050.74 2025.24 2022.75 2000.37 1988.75 1989.65 2005.05 2019.1 2019.02 2023.63 2059.14 2035.12 2013.16 2016.47 2015.1 2034.21 2007.22 2030.12 2004.84 2030.75 2046.49 2067.73 2083.21 2103.76 2073.5 2080.3 2080.1 2095.87 2071 2077.54 2076.78 2072.83 2079.94 2092 2126.79 2104.09 2107.16 2144.99 2130.87 2129.46 2139.43 2146.57 2151.47 2154.6 2157.79 2161.91 2169.24 2162.59 2153.04 2142.78 2134.15 2127.66 2118.97 2111.66 2107.48 2102.34 2104.68
2171.94 2167.24 2162.96 2157.55 2143.07 2131.63 2119.33 2099.04 2079.09 2084.48 2097.93 2111.64 2122.14 2134.58 2175.27 2183.97 2188.77 2179.37 2189.25 2182.47 2159.55 2147.95 2168.06 2192.94 2198.64 2195.32 2182.37 2196.16 2201.53 2215.68 2208.23 2213.68 2223.31 2273.51 2288.19 2311.15 2365.82 2405.89 2345.55 2316.21 2297.49 2300.64 2294.54 2275.21 2312.29 2354.97 2368.01 2387.28 2396.58 2392.61 2405.73 2402.99 2405.73 2421.68 2434.34 2440.32 2454.95 2470.55 2463.95 2462.92 2471.12 2483.6 2492.22 2497.02 2499.77 2503.67 2508.14 2510.79 2514.67 2519.38 2527.36 2534.7 2539.1 2548.08 2566.23 2584.33 2591.83 2601.72 2609.75 2620.32 2631.34 2643.26 2653.79 2665 2675.28 2676.89 2683.11 2695.63 2706.67 2724.11 2741.95 2758.92 2779.32 2797.98 2813.41 2814 2767.06 2777.7 2798 2811.18 2822.1 2832.27 2841.99 2828.07 2809.19 2775.27 2734.42 2730.72 2741.56 2754.08 2738.48 2733.76 2711.42 2715.59 2734.05 2748.75 2730.02 2705.39 2678.19 2690.88 2700.03 2715.7 2724.37 2733.85 2761.09 2748.58 2722.11 2705.99 2688.38 2662.19 2638.73 2620.84 2613.22 2602.45 2584.21 2576.14 2565.01 2564.34 2565.52 2553.9 2532.7 2498.75 2448.02 2433.15 2472.75 2485.85 2441.09 2404.37 2401.57 2387.29 2363.71 2318.06 2291.41 2280.44 2267.44 2274.02 2304.76 2314.46 2306.49 2289.24 2322.35 2343.31 2311.94 2310.17 2345.55 2388.64 2376.76 2359.69 2367.4 2339.64 2307.08 2292.11 2315.28 2301.91 2285.46 2259.35 2251.08 2237.71 2244.81 2309.54 2376.05 2398.25 2402.13 2399.64 2420.56 2446.54 2463.58 2456.7 2427.43 2407.6 2418.48 2425.23 2415.16 2399.02 2386.21 2365.75 2360.08 2347.77 2365.28 2379.19 2373.07 2374.1 2374.18 2377.73 2387.83 2411.26 2389.4 2359.73 2326.45 2319.29 2328.63 2303.22 2277.74 2274.53 2267.44 2293.27 2252.93 2224.26 2222.42 2209.7 2199.89 2198.58 2208.57 2193.62 2180.86 2172.2 2170.29 2164.31 2161.51 2157.64 2167.5 2160.89 2145.43 2137.31 2142.73 2152.58 2154.55 2167.52 2163.52 2162.9 2136.33 2152.63 2140.7 2131.55 2116.58 2094.41 2082.19 2076.13 2073.05 2070.57 2070.14 2079.44 2114.99 2122.53 2106.62 2107.26 2114.6 2084.41 2067.03 2066.6 2066.24 2068.89 2061.41 2058.4 2050.03 2023.43 2014.36 1988.92 1986.92 1986.69 1988.13 1999.46 2023.76 2055.08 2029.73 2012.21 2002.52 2002.63 2001.53 2002.37 2003.16 2010.06 2017.47 2034.91 2072.13 2083.71 2092.96 2096.94 2111.56 2095.84 2102.83 2087.19 2093 2094.22 2076.83 2088.07 2104.41 2121.51 2115.9 2133.14 2118.88 2132.08 2135.12 2145.15 2158.86 2157.74 2170.64 2179.29 2171.72 2170.86 2162.37 2154.47 2146.25 2137.43 2128.69 2119.74 2112.38 2106.92 2109.31 2104.45
2183.49 2172.74 2160.84 2150.3 2125.2 2121.05 2100.93 2077.97 2072.47 2081.9 2090.65 2086.97 2086.51 2099.34 2118.68 2112.75 2139.4 2153.03 2135.24 2126.05 2128.02 2151.99 2144.44 2156.73 2177.12 2185.8 2193.69 2182.04 2181.7 2191.82 2205.63 2231.45 2269.73 2281.3 2301.55 2305.39 2329.14 2330.62 2289.62 2282.85 2282.9 2284.81 2266.56 2337.42 2358.26 2364.55 2370.68 2389.28 2401.58 2408.26 2413.43 2418.53 2422.67 2431.69 2442.1 2459.48 2482.46 2477.18 2458.79 2465.96 2470.25 2475.73 2480.75 2493.78 2501.32 2504.74 2508.93 2512.09 2516.92 2522.56 2530.03 2537.87 2547.89 2553.5 2568.8 2582.23 2598.52 2611.02 2624.08 2630.11 2638.73 2644 2657.61 2673.98 2690.99 2700.68 2706.47 2706.52 2713.39 2735.01 2748.56 2766.09 2782.68 2798.31 2814.15 2816.16 2767.53 2756.24 2777.56 2798.12 2818.53 2833.2 2856.65 2825.35 2787.27 2738.88 2715.89 2720.22 2720.82 2726.81 2723.6 2713.37 2694.66 2709.73 2734.6 2750.61 2730.34 2693.6 2671.59 2680.72 2692.06 2700.6 2702.5 2719.15 2747.68 2745.43 2721.62 2701.76 2682.26 2662.43 2648.37 2633.36 2620.67 2610.31 2601.97 2595.48 2587.75 2579.68 2572.84 2565.92 2552.29 2533.98 2503.46 2435.45 2407.08 2428.51 2449.1 2442.96 2415.21 2384.02 2333.95 2312.09 2330.86 2299.08 2271.18 2262.89 2283.75 2299.27 2298.76 2293.31 2291.91 2314.78 2293.78 2320.15 2349.9 2370.09 2381.36 2369.16 2344.75 2330.89 2327.85 2304.44 2274.32 2284.22 2281.57 2278.94 2253.56 2233.55 2259.27 2298.8 2384.44 2414.89 2439.86 2433.51 2439.1 2452.86 2469.96 2440.83 2434.61 2449.27 2441.55 2421.67 2400.3 2383.7 2368.9 2362.41 2355.56 2341.53 2356.15 2377.46 2370.84 2363.82 2384.72 2416.38 2412.81 2403.39 2370.63 2341.62 2330.73 2308.13 2295.02 2296.19 2299.52 2288.78 2262.94 2254.89 2245.21 2256.48 2249.45 2251.88 2241 2231.96 2232.59 2227.65 2213.78 2199.27 2193.85 2191.37 2198.61 2199.24 2199.67 2199.38 2195.17 2187.72 2185.66 2181.14 2178.83 2177.16 2173.8 2165.92 2167.61 2166.37 2161.35 2153.25 2126.78 2131.5 2127.2 2116.61 2103.7 2086.3 2074.64 2061.84 2063.84 2076.88 2070.2 2063.55 2063.98 2053.07 2062.05 2044.41 2043.65 2047.95 2040.32 2059.3 2059.14 2036.49 2015.45 2004.04 1988.59 1985.65 1984.43 1988.67 2022.64 2054.6 2034.81 2001.58 1995.85 1997.62 1999.38 1999.7 2031.23 2036.08 2035.96 2036.39 2037.69 2058.97 2071.31 2085.32 2105.52 2111.79 2110.51 2097.03 2106.07 2093.51 2090.52 2088.38 2126.9 2114.81 2136.65 2151.88 2140.13 2141.99 2145.81 2139.71 2157.18 2172.29 2179.54 2181.19 2173.15 2165.7 2159.01 2151.27 2144.77 2136.87 2129.2 2122.26 2117.19 2115.3 2101.69 2107.37
2176.81 2150.78 2138.56 2123.95 2108.24 2106.46 2104.78 2081.31 2067.12 2073.87 2078.02 2085.16 2103.82 2101.32 2109.56 2108.18 2117.22 2118.41 2133.67 2167.36 2178.88 2184.64 2190.42 2183.82 2168.56 2190.7 2212.61 2216.43 2213.62 2203.83 2194.26 2210.56 2236.85 2270.29 2278.29 2281.84 2283.9 2282.49 2269.43 2273.97 2266.21 2276.99 2322.8 2347.02 2355.83 2375.48 2386.35 2386.92 2389.71 2410.46 2418.83 2424.78 2432.13 2443.92 2459.72 2479.06 2477.17 2453.35 2462.8 2473.06 2479.66 2484.97 2488.92 2493.62 2494.92 2503.01 2509.85 2514.18 2521.77 2528.63 2537.47 2551.43 2564.97 2576.06 2575.54 2599.16 2610.64 2624.83 2634.39 2642.55 2653.66 2664.36 2669.38 2667.48 2694.44 2714.36 2727.51 2730.68 2735.26 2744.46 2757.95 2777.48 2786.85 2795.48 2802.14 2793.92 2750.95 2710.4 2716.77 2741.76 2789.8 2816.91 2819.71 2792.5 2763.11 2714.23 2693.8 2700.09 2710.14 2701.16 2709.4 2691.15 2692.15 2718.99 2736.69 2746.81 2716.66 2690.84 2671.71 2667.62 2677.27 2680.24 2689.72 2707.23 2734.82 2741.68 2726.6 2710.06 2687.87 2661.84 2636.64 2608.76 2616.16 2608.1 2591.66 2595.61 2587.61 2579.68 2571.34 2561.78 2533.55 2493.11 2471.35 2467.61 2444 2398.01 2377.08 2375.39 2357.23 2338.91 2352.1 2375.28 2359.48 2315.51 2280.74 2263.44 2256.57 2301.11 2290.41 2265.23 2297.72 2291.51 2276.06 2313.39 2316.47 2323.82 2368.87 2366.61 2339.65 2339.53 2306.69 2304.04 2298.17 2261.9 2254.88 2284.46 2259.96 2225.42 2256.29 2286.44 2355.16 2407.15 2417.29 2424.47 2416.9 2424.47 2463.79 2467.46 2462.12 2443.29 2421.75 2415.57 2394.25 2394.84 2395.28 2381.3 2364.12 2345.28 2341.86 2363.27 2357.68 2370.85 2402.63 2424.96 2406.58 2376.43 2337.49 2331.78 2328.24 2316.05 2310.2 2313.46 2294.32 2273.06 2266.42 2268.11 2279.36 2265.3 2260.29 2252.08 2242.11 2238.19 2229.63 2228.55 2224.61 2219.94 2217.28 2214 2211.72 2209.85 2207.9 2204.09 2197.47 2191.83 2186.18 2182.08 2179.06 2176.79 2172.72 2167.41 2172.07 2169.06 2165.59 2161.51 2158.97 2156.07 2154.21 2147.65 2118.9 2120.04 2102.48 2087.86 2061.58 2051.55 2047.8 2049.13 2046.24 2040.42 2044.81 2036.44 2031.31 2031.66 2026.19 2026.33 2021.62 2007.71 2000.82 1995.12 1994.36 1988.47 1985.07 1983.48 2009.81 2012.92 2009.82 1991.13 1991.05 1998.66 2004.13 2021.24 2039.51 2057.53 2047.18 2051.23 2058.22 2047.1 2066.21 2086.52 2075.11 2095.42 2088.74 2086.26 2097.96 2101.71 2093.48 2094.23 2129.93 2136.08 2145.74 2151.16 2152.77 2154.33 2155.72 2149.81 2157.31 2178.1 2185.67 2175.96 2168.61 2158.57 2149.24 2143.72 2142.22 2134.38 2128.13 2125.1 2122.56 2110.66 2111.1 2109.87
2143.46 2115.02 2091.26 2095.75 2092.96 2094.55 2088.78 2071.19 2064.08 2083.53 2090.02 2102.65 2125.58 2133.7 2128.39 2144.13 2142.13 2133.07 2152.05 2169.69 2179.39 2187.04 2196.99 2205.9 2201.69 2219.17 2230.45 2225.02 2224.59 2225.36 2217.79 2219.25 2202.53 2228.05 2250.54 2260.48 2251.7 2243.78 2242.93 2258.74 2278.73 2348.82 2364.5 2366.03 2365.21 2367.13 2385.26 2402.6 2409.56 2415.5 2427.77 2438.52 2449.99 2464.24 2475.77 2472.54 2452.17 2457.32 2466.87 2480.8 2490.91 2494.51 2497.78 2499.03 2506.43 2508.93 2512.29 2518.86 2525.76 2536.37 2544.58 2563.44 2581.21 2594.11 2586.54 2592.75 2623.16 2638.88 2648.46 2657.82 2668.16 2677.53 2688.23 2687.12 2685.04 2704.21 2724.47 2741.13 2748.33 2755.3 2759.47 2743.32 2729.94 2733.5 2740.2 2735.67 2709.44 2688.62 2699.76 2708.62 2734.39 2746.76 2766.45 2737.39 2723.36 2694.83 2686.07 2682.93 2698.93 2688.38 2689.67 2664.43 2709.87 2728.23 2755.21 2750.05 2728.43 2704.12 2679.15 2662.86 2658.16 2663.89 2677.75 2694.09 2723.68 2733.98 2719.52 2707.44 2690.97 2671.73 2644.35 2612.68 2575.19 2576.56 2567.29 2583.43 2571.68 2574.26 2567.28 2550.45 2541.84 2528.95 2506.13 2489.11 2468.88 2443.42 2396.3 2400.38 2399.2 2404.6 2401.7 2381.53 2351.75 2317.83 2299.15 2278.51 2253.48 2260.46 2263.79 2269.25 2288.92 2272.15 2272.99 2297.13 2301.93 2328.99 2378.18 2372.69 2359.67 2360.61 2344.18 2335.21 2326.44 2286.2 2267.5 2238.85 2233.85 2222.66 2244.77 2269.76 2315.43 2373.93 2386.34 2382.7 2410.54 2440.42 2484.39 2470.55 2451.49 2426.94 2404.95 2390.31 2379.17 2372.39 2372.21 2363.92 2359.82 2346.02 2339.08 2354.54 2355 2358.15 2360.67 2364.56 2347.28 2326.65 2299.3 2287.18 2289.83 2304.66 2308.55 2315.68 2300.26 2285.39 2294.67 2296.9 2276.2 2262.67 2249.14 2230.45 2237.92 2223.53 2218.21 2214.96 2223.4 2220.08 2216.48 2213.8 2210.36 2207.77 2206.24 2203.18 2197.46 2191.66 2186.44 2182.17 2179.57 2177.07 2174.64 2172.68 2171.76 2168.77 2164.9 2161.85 2159.63 2155.83 2153.02 2148.84 2149.89 2145.65 2141.57 2129.56 2111.93 2079.54 2056.55 2047.77 2037.15 2032.1 2028.37 2026.29 2022.99 2018.62 2014.42 2011.96 2008.68 2002.56 2024.54 2026.39 2022.29 1989.92 1984.4 1982.33 2023.95 1997.27 1989.53 1987.22 1993.4 2014.58 2025.11 2022.1 2036.64 2056.41 2069.66 2066.46 2059.09 2059.42 2052.98 2059.21 2064.52 2069.65 2086.31 2096.44 2101.07 2105.23 2097.2 2101.17 2126.79 2141.38 2142.4 2146.61 2151.98 2156.48 2164.61 2155.62 2165.72 2178.49 2180.3 2170.97 2162 2156.78 2149.3 2137.52 2138.84 2128.46 2120.89 2120.05 2119.21 2116.51 2116.83 2114.45
2129.06 2108.28 2081.6 2072 2073.59 2069.52 2061.71 2065.2 2080.14 2119.84 2123.68 2109.78 2130.1 2141.07 2135.79 2152.98 2156.38 2158.82 2184.67 2195.69 2206.11 2203.21 2218.21 2225.14 2229.5 2235.34 2244.83 2243 2240.77 2243.58 2254.27 2252.05 2234.54 2222.09 2222.39 2239.44 2233.25 2249.1 2253.46 2282.2 2350.96 2361.83 2371.73 2384.63 2379.36 2376.37 2391.48 2406.25 2416.37 2431.17 2447.84 2458.36 2465.88 2469.89 2469.51 2439.33 2462.85 2471.15 2469.74 2478.52 2490.85 2497.2 2501.8 2504.47 2508.21 2514.49 2517.06 2524.79 2539.8 2546.88 2556.16 2560.52 2576.9 2592.01 2608.13 2606 2603.54 2640.96 2660.65 2664.72 2668.15 2674.38 2688.84 2703.52 2705.19 2709.21 2719.81 2740.78 2752.13 2723.01 2696.67 2692.84 2679.06 2685.03 2692.74 2693.02 2672.13 2670.93 2697.55 2701.69 2705.23 2714.75 2713.51 2711.57 2701.35 2683.9 2665.92 2669.96 2680.87 2668.54 2646.23 2674.82 2719.89 2739.02 2760.66 2747.17 2727.84 2709.79 2686.22 2669.11 2649.78 2652.49 2665.97 2682 2704.44 2730.46 2706.08 2686.07 2666.56 2646.69 2633.21 2616.2 2586.89 2553.69 2559.06 2572.69 2542.85 2549.15 2550.08 2543.59 2540.32 2522.86 2497.04 2473.48 2447.17 2448.14 2439.42 2427.71 2421.99 2411.77 2402.8 2388.66 2359.93 2325.34 2300.73 2290.61 2256.89 2244.22 2252.15 2274.3 2275.92 2256.02 2278.76 2307.01 2331.25 2351.38 2353.41 2358.29 2326.73 2317.1 2324.69 2303.24 2318.28 2308.07 2281.09 2280.19 2254.13 2221.27 2245.52 2278.27 2303.68 2356.98 2372.32 2408.07 2413.2 2446.31 2458.68 2443.23 2424.05 2429.38 2417.92 2402.11 2392.83 2388.48 2378.25 2367.44 2346.1 2332.54 2339.31 2366.68 2354.04 2347.73 2341.85 2326.75 2321.21 2316.87 2316.39 2309.82 2289.52 2269.52 2305.47 2295.47 2282.34 2293.33 2298.96 2280.34 2253.09 2237.86 2226.86 2219.13 2235.25 2224.74 2206.65 2195.22 2201.52 2217.04 2213.75 2209.83 2208.59 2205.39 2201.5 2198.97 2194.31 2188.15 2183.58 2182.07 2177.29 2175.04 2172.82 2173.55 2171.36 2167.59 2164.66 2161.67 2159.68 2155.71 2152.68 2148.55 2144.7 2138.79 2132.33 2128.22 2130.43 2124.53 2109.55 2080.87 2073.9 2064.64 2055.59 2050.67 2037.81 2031.72 2035.39 2037.81 2036.07 2030.41 2055.35 2048.21 2027.68 1990.67 1981.71 1980.11 2012.09 1983.39 1984.78 1996.85 2006.06 2024.9 2030.55 2035.25 2040.42 2055.56 2090.21 2075.93 2066.74 2066.09 2065.05 2060.36 2065.12 2080.43 2075.24 2096.49 2098.63 2099.06 2103.66 2110.07 2134.15 2140.21 2145.08 2150.88 2154.22 2156.64 2163.52 2166.19 2169.54 2178.08 2175.18 2162.53 2158.76 2156.4 2145.91 2128.34 2134.64 2124.7 2115.66 2111.65 2118.98 2122.58 2115.41 2117.82
2085.38 2078.77 2070.44 2056.72 2053.25 2054.8 2068.95 2086.07 2119.72 2138.1 2162.77 2155.23 2146.6 2165.46 2168.59 2169.89 2169.54 2174.34 2198.24 2217.26 2218.36 2221.11 2234.06 2233.61 2239.88 2245.34 2250.91 2254.74 2261.68 2250.22 2256.9 2265.16 2258.76 2249.21 2238.04 2233.34 2249.03 2275.41 2319.08 2330.94 2357.9 2370.18 2381.44 2391.65 2396.31 2399.51 2404 2419.66 2434.88 2444.26 2451.92 2464.17 2465.93 2461.55 2429.49 2462.35 2472.8 2482.02 2486.96 2489.74 2494.16 2497.04 2502.75 2508.43 2512.97 2519.15 2525.35 2528.74 2554.89 2568.41 2574.67 2577.24 2582.17 2601.73 2620.61 2632.18 2628.85 2620.69 2632.02 2642.77 2670.5 2674.34 2698.59 2717.51 2724.54 2729.97 2737.7 2745.1 2711.36 2674.23 2663.42 2658.57 2659.25 2668.31 2682 2662.9 2648.47 2657.38 2680.04 2674.04 2689.54 2699.92 2709.21 2706.59 2694.78 2662.39 2648.71 2645.45 2648.06 2630.93 2652.52 2705.82 2738.64 2729.01 2696.83 2688.14 2692.51 2696.59 2691.72 2672.59 2653.13 2637.8 2653.62 2671.69 2689.78 2720.14 2719.91 2699.01 2673.28 2646.46 2618.95 2586.89 2575.95 2552.17 2533.16 2567.62 2555.48 2523.21 2518.7 2511.03 2504.5 2501.58 2489.94 2472.33 2470.11 2456.32 2444.97 2428.06 2407.5 2383.34 2369.6 2381.41 2365.16 2326.46 2303.88 2290.81 2267.68 2244.1 2240.28 2249.62 2263.69 2250.65 2278.34 2309.36 2317.38 2351.03 2323.07 2342.51 2333.78 2296.04 2292.88 2277.77 2294.67 2329.62 2269.21 2287.38 2261.1 2218.02 2227.83 2267.48 2285.38 2335.76 2372.11 2370.82 2388.42 2437.49 2443.4 2420.75 2406.21 2396.83 2397.78 2395.29 2384.23 2364.32 2354.54 2352.45 2348.46 2340.91 2330.03 2317.07 2340.11 2375.94 2353.13 2338.07 2339.05 2324.7 2325.89 2313.4 2301.46 2275.65 2278.46 2296.99 2279.5 2257.49 2252.17 2247.77 2240.1 2246.28 2231.29 2211.12 2210.9 2216.22 2219.09 2207.79 2184.82 2206.08 2212.92 2208.53 2200.57 2203.23 2200.19 2198.04 2194.63 2188.46 2183.76 2177.57 2177.69 2170.58 2164.41 2163.78 2159.12 2151.79 2152.95 2149.46 2159.84 2155.58 2153.57 2149.54 2147.84 2144.03 2141.85 2136.77 2129.33 2119.76 2093.15 2076.34 2059.43 2050.35 2065.37 2055.59 2055.36 2042.3 2053.22 2041.38 2038.29 2052 2055.27 2037.55 2034.01 1989.94 1980.33 1979.16 1991.88 1979.22 1988.22 2007.11 2020.59 2016.36 2027.5 2034.72 2041.54 2057.54 2081.63 2076.61 2079.98 2073.02 2073.56 2062.37 2077.19 2072.3 2086.91 2087.98 2093.8 2099.65 2103.28 2115.57 2144.99 2123.44 2127.7 2136.51 2143.51 2150.34 2158.18 2160.65 2170.62 2179.88 2178.66 2165.54 2149.23 2150.69 2142.43 2129.7 2126.46 2115.19 2108.75 2107.09 2115.27 2114.66 2121.23 2118.3
2073.52 2059.42 2052.95 2072.96 2101.41 2082.93 2096.77 2084.89 2123.72 2150.02 2166.23 2183.01 2175.28 2205.51 2207.91 2181.15 2179.04 2191.29 2222.08 2220.26 2227.53 2225.39 2237.44 2242.05 2247.87 2251.93 2261.97 2256.55 2267.82 2261.08 2277.77 2278.37 2278.13 2279.94 2298.08 2254.05 2305.38 2343.89 2353.59 2345.43 2363.66 2377.69 2392.68 2396.99 2401.72 2410.54 2424.25 2445.48 2446.76 2440.17 2448.02 2448.87 2419.19 2416.64 2432.37 2454.85 2452.29 2461.84 2482.15 2488.03 2494.69 2496.15 2497.28 2506.41 2515.11 2521.74 2528.62 2536.12 2542.11 2550.27 2560.39 2572.04 2590.32 2609.17 2623.53 2634.3 2648.94 2658.02 2665.19 2654.12 2683.24 2695.89 2707.02 2724.55 2735.79 2744.59 2737.76 2693.06 2659.71 2652.77 2652.09 2650.85 2649.78 2664.1 2676.74 2656.77 2626.08 2636.98 2660.76 2670.93 2676.31 2697.45 2695.52 2688.34 2676.6 2636.99 2618.82 2618.87 2635.16 2625.77 2652.95 2687.12 2715.86 2653.65 2638.86 2640.23 2650.64 2667.14 2678.81 2673.05 2653.73 2633.95 2639.76 2658.05 2678.34 2708.5 2695.53 2694.35 2680.59 2658.11 2624.54 2591.27 2567.43 2550.14 2531.97 2504.77 2534.56 2529.82 2501.77 2501.7 2482.05 2484.77 2470.85 2479.29 2482.25 2466.08 2449.6 2431.18 2427.35 2404.21 2375 2343.85 2334.26 2312.03 2292.18 2280.16 2275.99 2252.93 2236.71 2238.1 2246.03 2252.44 2282.25 2280.8 2301.24 2341.08 2311.23 2305.31 2323.5 2296.81 2272.78 2270.39 2285.78 2315.65 2256.39 2251.69 2241.29 2209.02 2225.84 2266.34 2281.4 2312.19 2358.81 2394.52 2427.18 2457.42 2467.86 2456.24 2451.72 2438.41 2431.59 2413.19 2383.98 2387.17 2377.96 2359.46 2352.1 2343.4 2328.87 2314.18 2330.33 2355.48 2335.55 2322.01 2302.41 2292.16 2288.5 2278.27 2268.94 2257.07 2252.26 2265.2 2272.99 2271.75 2272.8 2262.09 2249.41 2231.54 2223.1 2216.3 2203.27 2196.45 2187.68 2183.65 2176.9 2175.55 2184.75 2196.42 2205.07 2189.46 2188.26 2189.48 2195.11 2190.05 2185.2 2181.6 2178.37 2175.05 2171.99 2167.73 2165.55 2160.71 2152.66 2147 2134.48 2128.45 2125.28 2124.82 2130.54 2136.27 2126.62 2116.12 2120.56 2114.36 2100.09 2075.74 2059.12 2044.14 2036.31 2031.21 2028.5 2025.69 2021.67 2015.43 2014.39 2013.7 2020.46 2015.52 2020.66 1988.49 1979.11 1978.52 1976.16 1981.96 2002.07 2023.6 2051.29 2040.32 2038.94 2054.8 2051.97 2068.04 2097.25 2105.65 2092.21 2084.09 2075.79 2069.54 2080.56 2080.91 2092.01 2094.61 2092.39 2098.7 2105.01 2121.78 2118.19 2115.22 2141.62 2148 2155.47 2157.07 2161.33 2169.49 2170.62 2179.55 2178.52 2159.12 2147.63 2137.53 2133.82 2124.76 2117.91 2112.81 2107.47 2098.14 2103.94 2109.93 2118.28 2119.49
2062.34 2053.91 2048.02 2103.71 2126.08 2132.15 2136.31 2115.13 2120.51 2168.73 2177.95 2202.7 2216.2 2218.08 2222.63 2202.97 2187.29 2195.25 2215.27 2235.88 2229.58 2230.38 2241.08 2254.5 2263.27 2256.95 2258.48 2260.79 2264.03 2266.99 2275.5 2281.87 2307.66 2345.85 2328.04 2267.08 2345.15 2351.89 2357.26 2362.26 2360.37 2383.52 2395.27 2404.11 2412.49 2422.19 2442.13 2450.64 2441.5 2431.68 2447.26 2419.32 2414.96 2457.81 2460.48 2453.1 2468.06 2467.5 2467.83 2477.39 2483.02 2488.64 2496.82 2507.37 2515.08 2522.19 2531.37 2542.21 2561.05 2569.96 2581.27 2586.42 2578.62 2598.26 2617.19 2640.2 2657.67 2672.03 2681.81 2678.31 2685.68 2702.34 2719.93 2732.48 2740.25 2713.68 2667.97 2645.65 2642.22 2647.44 2649.84 2644.9 2637.13 2647.37 2658.5 2634.06 2612.54 2630.61 2645.24 2659.92 2670.98 2667.95 2672.64 2652.32 2644.69 2614.38 2588.31 2614.64 2616.3 2616.27 2649.74 2663.94 2620.82 2626.02 2613.91 2610.7 2625.58 2635.82 2639.32 2666.04 2660.39 2636.7 2623.98 2643.44 2666.93 2692.05 2684.12 2668.38 2658.72 2652.26 2629.55 2599.02 2570.95 2547.57 2548.92 2523.27 2481.53 2505.65 2507.65 2478.95 2477.31 2460.69 2457.68 2489.42 2474.4 2448.45 2438.41 2415.7 2401.99 2404.67 2377.16 2350.82 2328.52 2338.48 2313.58 2293.12 2276.96 2259.28 2241.49 2228.88 2233.21 2255.38 2268.87 2294.61 2318.2 2330.61 2298.14 2298.19 2293.38 2277.88 2276.31 2256.46 2269.15 2293.16 2273.73 2234.93 2227.88 2206.44 2227.26 2262.91 2263 2303.19 2345.9 2393 2409.97 2434.72 2431.3 2422.78 2429.58 2434.81 2417.26 2405.87 2398.1 2383.64 2359.2 2345.05 2342.29 2330.7 2322.79 2317.41 2306.98 2342.18 2327.33 2317.81 2313.62 2297.07 2298.38 2284.24 2285.06 2280.44 2261.49 2247.68 2239.24 2235.04 2239.36 2237.85 2233.14 2231.83 2218.34 2227.25 2228.33 2223.91 2217.12 2203.1 2188 2174.98 2165.08 2167.19 2181 2191.52 2182.02 2163.36 2178.77 2188.32 2184.27 2181.24 2178.32 2175.59 2172.56 2169.76 2167.23 2164.16 2157.24 2156.68 2150.74 2145.41 2136.72 2129.5 2117.57 2104.81 2096.34 2090.55 2083.13 2077.55 2069.65 2065.98 2057.09 2049.85 2042.58 2041.01 2030.38 2026.85 2029.83 2016.78 2010.68 2001.41 1996.62 1991.9 1987.77 1982.41 1975.99 1974.9 1981.18 1990.22 2019.82 2073.05 2102.99 2046.35 2067.07 2071.85 2054.05 2084.58 2140.64 2148.56 2118.82 2094.41 2086.47 2078.92 2081.15 2089.38 2088.61 2100.35 2102.98 2107.25 2115.86 2102.53 2102.23 2133.54 2140.06 2162.48 2172.63 2168.69 2176.91 2178.3 2176.26 2184.54 2177.44 2165.42 2156.35 2146.76 2139.5 2133.63 2124.64 2115.89 2104.84 2098.08 2095.25 2103.42 2118.98 2116.36
2054.11 2045.07 2055.16 2072.83 2114.2 2143.63 2165.23 2146.98 2117.24 2170.64 2189.57 2219.86 2229.45 2233.94 2241.88 2213.54 2202.88 2209.79 2223.44 2236.01 2241.2 2245.65 2257.19 2255.84 2261.31 2278.26 2272.72 2276.66 2272.42 2280.09 2293.3 2328.77 2360.45 2352.08 2322.61 2284.28 2354.25 2362.24 2360.82 2370.2 2369.66 2377.84 2399.99 2414 2425.08 2435.72 2448.12 2447.99 2433.15 2429.15 2403.3 2416.27 2450.41 2441.7 2468.91 2475.27 2478.4 2478.19 2476.81 2484.84 2489.5 2496.45 2501.2 2508.88 2517.36 2526.35 2538.2 2555.56 2571.2 2583.61 2594.02 2605.94 2604.75 2592.86 2619.11 2639.97 2659.29 2667.75 2681.29 2702.59 2706.74 2710.5 2726.57 2729.42 2694.58 2652.89 2634.27 2639.59 2642.58 2652.05 2642.8 2620.41 2614.1 2618.68 2618.69 2614.25 2601.49 2611.55 2634.99 2639.98 2628.17 2627.72 2637.28 2635.39 2616.18 2594.68 2591.61 2615.47 2577.12 2616.96 2616.67 2595.5 2581.82 2590.27 2578.92 2591.11 2603.44 2614.84 2618.51 2647.23 2660.34 2635.04 2613.27 2630.76 2654.76 2674.47 2679 2661.02 2640.18 2621.13 2611.1 2585.26 2560.31 2539 2529.27 2511.36 2500.52 2474.66 2456.69 2461.19 2449.76 2439.01 2480.28 2486.4 2462.37 2444.65 2411.7 2407.36 2372.02 2370.19 2368.79 2373.27 2365.48 2349.18 2317.46 2293.4 2277.38 2259.01 2243.25 2233.07 2224.26 2233.28 2266.18 2267.61 2301.01 2321.68 2288.41 2296.53 2277.51 2269.09 2266.29 2249.43 2250.4 2279.26 2298.63 2238.51 2228.79 2206.09 2210.18 2257.11 2279.85 2288.19 2312.76 2380.01 2415.63 2397 2446.83 2424.56 2402.36 2387.06 2407.69 2402.49 2389.42 2369.86 2353.21 2347.78 2336.49 2329.42 2326.05 2316.57 2303.89 2317.24 2345.51 2338.41 2323.38 2318.26 2313.32 2310.01 2282.12 2273.53 2273.33 2269.23 2253.52 2237.4 2230.1 2221.14 2212.7 2206.26 2202.53 2200.65 2203.49 2215.55 2221.02 2195.63 2182.59 2174.78 2169.92 2159.09 2157.24 2158.44 2152.54 2148.05 2146.96 2165.76 2167.93 2177.98 2178.03 2173.67 2172.01 2163.32 2167.21 2164.15 2165.79 2161.62 2157.33 2153.93 2149.04 2144.52 2140.05 2125.1 2125.12 2126.82 2114.28 2122.45 2108.65 2109.34 2090.83 2070.62 2069.55 2060.28 2058.28 2051.09 2038.21 2036.88 2028.31 2024.35 2025.12 2029.66 2012.76 1979.8 1973.49 1992.68 2018.92 2036.47 2068.91 2108.78 2121.6 2061.37 2088.71 2067.06 2068.01 2078.21 2136.63 2152 2138.96 2115.51 2095.24 2087.75 2083.23 2093.27 2091.25 2099.82 2103.43 2101.98 2095.89 2094.86 2121.82 2140.68 2140.1 2151.67 2175.62 2181.74 2182.31 2174.43 2174.7 2177.46 2161.05 2155.16 2145.48 2145.71 2137.38 2125.22 2116.35 2111.88 2109.87 2104.4 2094.07 2109.88 2111.82 2115.76
2050.79 2040.64 2064.87 2087.16 2131.39 2132.46 2167.75 2176.57 2157.15 2153.61 2205.15 2221.2 2235.46 2252.53 2277.99 2242.26 2224.13 2226.84 2237.8 2249.45 2259.08 2272.09 2280.75 2279.72 2285.03 2297.68 2293.28 2290.3 2287.59 2303.06 2350.84 2373.52 2360.1 2358.88 2355.12 2295.53 2358.44 2371.95 2372.5 2371.27 2385.54 2381.18 2405.02 2414.39 2426.74 2442.78 2447.21 2427.61 2389.51 2394.11 2397.37 2435.02 2466.56 2474.4 2474.54 2483.02 2485.49 2485.16 2480.75 2489.21 2495.06 2499.68 2507.46 2514.99 2523.46 2534.92 2545.43 2558.56 2581.4 2592.69 2607.12 2618.65 2628.12 2610.73 2605.37 2625.64 2651.75 2672.57 2686.11 2708.51 2723.18 2722.41 2681.73 2653.77 2644 2624.95 2637.04 2634.54 2606.72 2623.51 2620.66 2595.67 2592.75 2596.49 2585.24 2597.41 2586.15 2595.83 2616.39 2617.81 2594.06 2607.67 2627.44 2641.38 2613.2 2559.51 2582.87 2550.6 2555.89 2599.35 2574.27 2563.63 2552.77 2566.35 2564.95 2576.77 2583.23 2598.03 2616.57 2633.16 2651.58 2638.17 2612.05 2613.85 2630.73 2640.58 2659.35 2648.1 2634.07 2605.05 2587.47 2570.83 2554.88 2535.47 2539.32 2525.45 2500.25 2477.33 2456.56 2438.07 2432.1 2424.8 2461.41 2470.66 2454.37 2423.7 2415.24 2397.54 2367.06 2346.79 2352.71 2387.74 2389.32 2355.14 2324.35 2297.24 2277.35 2260.84 2242.1 2231.1 2223.68 2223.16 2230.5 2251.89 2280.41 2322.26 2298.99 2268.03 2287.05 2265.74 2247.48 2241.89 2234.83 2246.9 2298.31 2273.34 2250.61 2221.92 2195.68 2233.62 2245.26 2271.1 2311.44 2359.94 2358 2398.18 2442.61 2428.16 2415.82 2392.94 2369.56 2371.17 2370.04 2347.63 2337.84 2333.46 2344.99 2341.29 2330.2 2316.61 2309.62 2296.92 2311.21 2312.17 2323.46 2324.16 2314.41 2299.39 2304.5 2299.12 2286.73 2262.48 2252.85 2248.21 2243.04 2235.74 2225.04 2222.65 2213.86 2206.86 2194.97 2185.8 2197.68 2189.64 2178 2177.95 2173.72 2163.65 2156.35 2152.72 2151.18 2147.54 2138.33 2130.78 2132.55 2129.04 2141.21 2155.15 2167.78 2148.17 2160.58 2158.92 2163.73 2160.91 2157.68 2155.54 2153.88 2148.72 2130.52 2139.14 2138.89 2136.39 2133.48 2127.33 2123.69 2119.27 2100.53 2090.49 2105.72 2063.4 2038.25 2029.41 2021.36 2020.29 2013.71 2009.83 2028.41 1999.31 1990.64 1973.78 1971.76 2039.26 2071.02 2089.59 2132.56 2132.1 2122.72 2093.51 2084.03 2072.47 2097.65 2091.63 2123.21 2144.97 2150.16 2137.42 2131.52 2097.2 2086.74 2096.23 2101.62 2101.63 2102.2 2091.88 2086.23 2103.1 2107.45 2112.67 2134.96 2157.5 2178.63 2188.26 2185.46 2166.37 2171.12 2172.66 2160.7 2153.17 2146.64 2134.07 2130.23 2127.44 2122.22 2116.81 2107.42 2098.8 2090.53 2097.39 2116.47 2110.5
2041.8 2047.1 2061.76 2091.93 2134.92 2157.81 2172.5 2195.48 2201.8 2162.19 2224.99 2244.82 2256.62 2285.69 2291.2 2282.61 2266.62 2250.42 2253.5 2268.17 2280.99 2287.36 2299.13 2311.52 2311.97 2303.44 2320.46 2325.45 2340.25 2366.14 2378.86 2378.53 2372.71 2369.99 2360.87 2319.27 2367.42 2380.99 2385.1 2382.6 2390.39 2398.59 2399.29 2415.74 2431.93 2443.62 2446.26 2417.85 2389.09 2428.41 2443.03 2445.99 2458.44 2473.99 2484.09 2485.33 2492.26 2492.66 2487.6 2493.3 2498.1 2504.76 2512.56 2524.37 2533.52 2542.09 2553.16 2571.49 2593.77 2606.98 2619.33 2634.78 2642.74 2634.83 2638.81 2620.6 2645.18 2678.14 2689.07 2701.73 2688.94 2659.27 2658.87 2649.57 2637.12 2616.36 2622.36 2609.66 2582.15 2588.98 2592.97 2582.32 2580.16 2577.28 2561.04 2577.81 2573.72 2568.9 2597.02 2566.82 2559.55 2622.18 2631.38 2636.84 2613.61 2550.36 2526.85 2524.72 2561.63 2596.22 2569.53 2539.13 2538.77 2545.92 2564.32 2581.05 2578.3 2607.11 2639.89 2649.34 2631.22 2622.86 2610.55 2599.89 2614.23 2631.28 2645.44 2633.6 2622.15 2597.35 2568.16 2554.75 2543 2527.06 2515.71 2492.59 2491.23 2488.26 2483.64 2470.98 2458.89 2433.47 2407.5 2418.86 2435.95 2422.54 2410.62 2391.52 2363.02 2347.12 2332.99 2353.68 2351.19 2354.97 2330.58 2302.91 2279.33 2261.53 2242.83 2230.88 2223.2 2215.32 2220.28 2254.71 2277.34 2295.15 2297.72 2269.77 2251.85 2272.54 2233.16 2246.99 2227.16 2237.58 2246.19 2234.52 2227.99 2233 2188.16 2231.38 2264.44 2278.8 2283.77 2311.61 2369.07 2400.01 2408.24 2427.89 2408.38 2400.27 2376.07 2373.44 2362.88 2359.96 2351.34 2341.11 2327.48 2316.45 2315.15 2317.74 2311.77 2299.81 2290.86 2292.87 2302.74 2323.94 2316.07 2321.54 2298.24 2299.9 2275.11 2246.01 2249.62 2250.93 2247.69 2240.37 2237.3 2234.63 2220.63 2204.45 2196.86 2191.44 2185.94 2177.08 2169.69 2165.87 2160.66 2162.07 2157.03 2155.36 2153.59 2156.42 2160.71 2154.62 2147.14 2135.8 2120.44 2112.34 2125.58 2132.71 2120.84 2136.96 2158.48 2158.68 2156.31 2152.94 2148.66 2147.77 2144.83 2142.96 2139.79 2138.04 2135.05 2129.88 2123.31 2114.28 2117.19 2112.38 2105.1 2060.22 2039.45 2026.74 2026.64 2013.74 2001.61 1996.25 2001.52 1991.8 1974.83 1970.55 1974.68 2062.36 2111.65 2137.61 2165.84 2181.47 2156.6 2100.81 2085.02 2113.86 2100.56 2120.38 2140.7 2152.34 2144.75 2131.48 2112.22 2108.07 2100.37 2103.56 2102.02 2098.11 2092.74 2082.48 2090.14 2098.77 2100.16 2132.17 2139.61 2150.08 2175.93 2187.8 2190.14 2170.26 2162.05 2166.78 2160.16 2152.38 2147.26 2137.98 2128.1 2123.2 2113.21 2110.68 2103.86 2096.77 2088.48 2095.01 2103.21 2101.02
2044.93 2045.66 2062.85 2066.6 2113.33 2151.99 2177.33 2191.71 2226.29 2221.6 2229.47 2259.24 2269.04 2292.47 2304.26 2298.97 2294.12 2279.96 2272.93 2283.71 2296.57 2302.62 2304.9 2308.76 2329.28 2326.42 2333.3 2375.55 2372.5 2387.47 2390.72 2383.22 2379.11 2369.16 2352.87 2349.33 2368.19 2381.22 2391.18 2394.91 2402.39 2406.92 2417.62 2421.93 2427.38 2438.38 2433.25 2395.23 2388.11 2431.53 2457.63 2465.74 2464.67 2473.48 2485.21 2492.69 2493.88 2499.23 2494.59 2498.67 2502.58 2509.5 2519.18 2529.01 2542.2 2555.46 2562.83 2582.69 2606.27 2619.61 2629.29 2643.57 2658.29 2654.59 2647.54 2649.91 2638.34 2652.48 2663.31 2642.7 2651.31 2651.11 2637.27 2620.2 2610.18 2603.04 2583.32 2589.45 2566.01 2560.81 2558.68 2563.34 2568.36 2541.83 2541.5 2560.01 2555.63 2548.47 2566.04 2546.43 2572.79 2616.97 2619.53 2613.86 2559.05 2539.71 2513.7 2516.03 2536.2 2563.99 2537.85 2524.61 2540.01 2548.18 2571.69 2588.58 2588.33 2598.53 2622.96 2641.66 2631.29 2621.44 2611.07 2593.56 2608 2637.43 2652.09 2628.03 2613.4 2591.61 2565.67 2544.68 2528.19 2519.66 2526.38 2530.4 2526.73 2514.8 2499.49 2492.66 2477.95 2463.94 2442.73 2413.87 2391.12 2376.39 2371.14 2364.09 2347.87 2339.45 2324.32 2319.7 2321.84 2320.23 2341.32 2317.09 2286.65 2265.93 2244.39 2229.42 2218.22 2214.33 2214.25 2236.17 2278.25 2302.33 2298.34 2269.64 2249.26 2259.75 2239.77 2224.82 2225.22 2226.82 2231.19 2236.44 2209.12 2197.47 2188.33 2218.18 2246.01 2262.8 2303.57 2298.76 2323.9 2368.52 2377.66 2422.82 2417.24 2400.2 2398.61 2381.77 2361.57 2349.21 2338.44 2338.56 2340.35 2334.82 2326.1 2324.1 2318.39 2311.49 2301.94 2281.73 2292.48 2320.69 2300.24 2286.55 2280.82 2269.86 2267.24 2244.66 2243.76 2247.69 2239.79 2230.85 2221.69 2218.02 2211.42 2216.4 2215.46 2203.94 2191.43 2182.1 2173.66 2170.03 2160.72 2151.6 2147.61 2146.03 2144.97 2141.79 2144.85 2137.87 2141.78 2126.81 2116 2113.44 2105.64 2108.1 2112.63 2115 2124.41 2121.13 2141.25 2151.45 2145.54 2144.67 2125.71 2136.54 2136.49 2113.92 2130.73 2115.49 2124.9 2122.52 2119.29 2106.4 2081.7 2069.18 2059.63 2029.41 2018.49 2015.96 2009.81 1994.93 1986.05 1978.9 1969.52 1968.21 1984.86 2059.34 2128.03 2168.49 2221.37 2226.73 2159.13 2111.37 2097.5 2129.04 2127.28 2144.21 2157.25 2154.24 2148.83 2144.87 2126.72 2106.38 2103.77 2102.27 2097.36 2087.96 2087.6 2082 2081.58 2084.24 2106.9 2130.04 2133.23 2148.27 2173.57 2185.96 2185.5 2183.74 2151.25 2157.42 2149.27 2144.22 2141.58 2135.22 2132.97 2121.59 2110.16 2104.27 2098.32 2091.61 2092.2 2086.54 2083.37 2091.7
2049.93 2037.87 2043.17 2067.19 2105.31 2137.78 2164.34 2195.45 2237.27 2262.48 2267.1 2264.15 2268.68 2296.43 2307.92 2319.13 2314.6 2306.89 2291.1 2302.64 2310.19 2312.6 2325.6 2319.22 2333.93 2354.44 2390.54 2381.13 2392.51 2397.04 2397.09 2386.45 2376.27 2361.76 2350.36 2355.48 2374.33 2389.97 2401.27 2408.29 2416.28 2417.99 2428.45 2436.66 2436.77 2434.8 2420.84 2375.84 2420.75 2431.3 2447.48 2475.62 2480.41 2488.79 2492.12 2496.64 2498.1 2506.17 2501.81 2503.5 2509.6 2514.69 2524.17 2535.43 2547.59 2559.37 2574.75 2594.95 2618.04 2634.49 2641.98 2643.27 2655.88 2655.99 2641.42 2609.82 2630.75 2619.95 2613.8 2625.03 2626.03 2625.51 2625.1 2598.94 2577.7 2569.73 2559.78 2556.68 2552.13 2542.89 2520.82 2535.18 2537.64 2522.73 2521.83 2550.45 2532.88 2535.35 2561.67 2527.57 2574.03 2593.24 2603.52 2567.32 2538.68 2537.8 2506.67 2500.26 2508.18 2520.66 2525.55 2521.51 2559.92 2551.33 2549.06 2555.58 2575.58 2582.47 2592.56 2621.42 2650.51 2628.53 2609.88 2589.14 2602.3 2631.65 2656.38 2631.94 2607.78 2583.88 2564.54 2557.12 2543.47 2541.9 2561.25 2562.52 2540.81 2519.8 2506.92 2486.28 2473.06 2455.02 2449.25 2430.36 2416.15 2404.47 2375.38 2365.9 2352.66 2346.18 2326.64 2306.14 2296.62 2298.9 2309.71 2320.29 2299.06 2269.09 2249.14 2229.09 2218.59 2210.6 2206.59 2225.55 2256.02 2273.5 2314.87 2308.76 2277.12 2246.6 2224.2 2216.42 2218.47 2208.03 2210.64 2218.5 2200.17 2208.15 2182.64 2207.72 2228.25 2280.36 2293.32 2278.09 2309.52 2336.85 2374.8 2396.08 2436.2 2424.45 2395.35 2373.41 2363.57 2354.39 2357.29 2345.74 2329.2 2325.42 2331.97 2316.47 2305.08 2300.43 2296.19 2289.24 2291.65 2300.94 2288.45 2293.79 2280.6 2249.06 2262.67 2238.99 2223.2 2253.94 2247.47 2240.44 2229.62 2214.98 2212.1 2202.65 2201.15 2204.19 2185.79 2178.11 2174.2 2170.36 2162.28 2155.37 2154.91 2148.17 2143.38 2139.03 2134.34 2130.67 2126.06 2122.83 2120.62 2117.24 2112.01 2106.15 2097.17 2098.35 2102.76 2104.6 2127.28 2120.94 2118.28 2111.97 2120.02 2097.73 2117.64 2100.55 2104.68 2078.33 2119.19 2111.26 2116.11 2114.07 2109.9 2067.74 2037.99 2036.67 2017.63 2011.37 2012.02 1995.2 1979.9 1976.55 1968.1 1968.85 2014.63 2072.62 2156.78 2196.7 2230.95 2224.7 2163.53 2165.53 2132.29 2153.67 2150.87 2164.49 2172.44 2159.32 2151.48 2140.41 2116.7 2106.33 2107.05 2096.78 2090.31 2083.56 2081.05 2077.28 2082.16 2085.52 2095.33 2105.9 2141.77 2163.14 2187.57 2176.44 2182.28 2170.41 2159.92 2147.01 2133.85 2125.37 2126.45 2134.42 2121.57 2117.84 2110 2098.57 2092.04 2083.3 2081.31 2084.75 2088.52 2081.43
